0.395391	0.151578	0.188027	0.070730	-0.496704	-0.865033
0.283192	0.321905	-0.031945	0.709645	0.169150	-0.683953
-0.055972	0.401245	0.184735	0.760096	-0.647410	-0.055808
-0.153898	0.335900	0.446247	-0.098527	-0.947462	0.304315
-0.103188	0.066291	0.613971	-0.521160	0.354435	-0.776381
0.118397	0.013063	0.540622	0.380320	0.160996	-0.910734
-0.375914	0.354317	0.645958	-0.902713	-0.266581	0.337705
0.040133	0.298575	0.195922	-0.009050	0.938912	-0.344037
0.285920	0.007901	0.575336	-0.315586	-0.899759	-0.301396
-0.120375	0.156026	0.734766	-0.955764	0.223576	0.191128
0.089351	0.202161	-0.227628	0.508107	-0.538450	-0.672234
-0.036584	0.175630	-0.027176	-0.409325	0.118120	-0.904710
-0.242412	0.256314	0.417446	-0.703240	0.532193	0.471407
0.206236	0.080259	0.211928	0.149376	0.184056	0.971499
-0.720767	0.105478	0.223881	-0.740840	0.525642	-0.418159
-0.236711	0.120418	0.500363	-0.101161	-0.936882	-0.334692
-0.019242	0.050740	0.889193	-0.636514	-0.466105	0.614488
-0.154294	0.079418	0.154931	-0.987566	0.049943	0.149062
0.228343	0.153141	0.173295	0.899723	0.436459	-0.001112
0.150258	0.470162	0.754054	0.180654	0.643344	0.743957
0.173577	0.009034	0.013495	0.810525	0.090960	-0.578597
0.037208	0.119854	0.396178	0.355466	-0.138015	0.924443
0.213214	0.098373	0.676988	0.950942	-0.187175	-0.246322
0.094508	0.087726	0.647872	0.642942	0.399172	-0.653672
-0.028940	0.121878	0.458276	0.543936	-0.600669	0.585943
0.570745	0.021501	0.138546	0.199535	-0.886809	-0.416840
0.036070	0.288304	0.072071	0.163748	0.591886	-0.789213
-0.358176	0.252466	0.108473	-0.198437	-0.866719	-0.457625
-0.436284	0.316593	0.409674	-0.913511	0.193823	-0.357673
-0.107198	0.250666	0.034808	0.040129	0.685184	-0.727263
-0.181769	0.233052	0.756884	0.566018	0.640428	0.519110
-0.546141	0.176139	0.367171	-0.402437	-0.787756	0.466353
-0.164924	0.166315	0.602040	-0.662324	-0.199165	-0.722260
-0.163493	0.126664	0.030770	-0.029560	0.084299	-0.996002
-0.000439	0.084817	0.625835	-0.880334	-0.164067	-0.445078
0.126326	0.543373	-0.118653	0.423862	0.126039	-0.896914
-0.195121	0.302414	0.301122	0.919341	-0.387330	0.069185
0.003342	0.497334	0.356178	0.980838	0.159620	-0.111707
-0.103927	0.159546	0.497174	0.211393	0.831885	-0.513108
0.149999	0.484618	0.480828	0.290737	-0.355875	0.888158
0.194081	0.019325	0.677323	0.280572	-0.921517	-0.268490
-0.129499	0.000457	0.780693	0.705346	-0.550332	0.446791
-0.219449	0.093812	0.551694	0.628942	-0.777435	-0.005168
0.028968	0.048400	0.118780	0.525884	-0.245257	0.814429
0.079950	0.155285	0.011485	0.304418	0.742853	-0.596237
0.177096	0.312736	0.108046	-0.199640	-0.775365	-0.599127
-0.086657	0.191203	0.118574	-0.213206	0.345069	0.914041
-0.004463	0.553989	0.582621	0.067282	0.950796	0.302422
0.088612	0.162235	0.461828	-0.483684	-0.875196	-0.009061
0.220480	0.127069	0.239992	-0.833252	0.231268	-0.502201
0.215279	0.374981	0.038017	0.160658	0.959193	0.232675
0.088288	0.372110	0.537276	-0.871475	0.489113	-0.036062
-0.024994	0.138686	-0.044194	0.081411	0.404247	-0.911019
-0.267691	0.233574	0.595235	-0.765158	0.630112	-0.132260
-0.082520	0.211442	0.282276	-0.321415	-0.361263	0.875318
-0.049477	0.166011	0.702115	-0.143998	0.650682	0.745572
0.403000	0.328319	0.766076	0.492854	0.397090	0.774218
0.507528	0.430274	0.332246	0.991085	-0.037384	-0.127876
-0.135017	0.087203	0.532734	0.547472	-0.619480	-0.562600
-0.040881	0.152207	0.789068	-0.915887	0.382508	0.121809
-0.116118	0.004193	-0.107953	-0.270070	-0.352523	-0.895985
0.121087	0.037678	0.654167	0.576646	-0.709195	-0.405613
0.470308	0.004975	0.079765	0.961648	-0.068653	-0.265556
-0.026545	0.032308	0.689362	-0.352253	0.428988	0.831798
-0.070059	0.194678	0.515337	-0.424833	0.849719	0.312241
-0.025297	0.103095	0.249854	0.034089	0.328544	0.943873
0.300954	0.272292	0.444809	0.285088	0.816163	0.502596
0.439174	0.000288	0.704630	0.677577	0.609351	0.411803
0.005319	0.139824	-0.080777	0.082585	0.148739	-0.985422
-0.042323	0.300164	0.165756	0.121419	-0.801222	-0.585919
-0.322923	0.649794	0.190809	-0.571019	0.559022	-0.601192
-0.024600	0.726922	0.237694	-0.304060	0.921006	-0.243505
-0.422868	0.241252	-0.148192	-0.697256	0.329692	-0.636504
0.127009	0.268659	0.801521	-0.029218	-0.085583	0.995903
-0.179445	0.102202	0.180527	-0.728821	0.668382	0.148610
0.066377	0.050622	0.172728	-0.695391	-0.286855	0.658897
0.258783	0.119431	0.183413	0.931500	0.338837	-0.132277
0.277524	0.186356	0.222194	0.663621	0.744559	-0.072381
-0.529197	0.245459	0.013333	-0.394784	0.912389	0.108129
-0.012019	0.052086	-0.189925	0.691626	-0.357504	-0.627571
0.109440	0.055078	0.275839	0.857811	0.208369	0.469833
-0.177864	0.006717	0.508818	-0.926463	-0.095055	-0.364186
0.370073	0.183626	0.186498	0.998610	0.037589	-0.036958
-0.118551	0.168821	0.433698	0.167572	-0.952375	-0.254756
-0.130180	0.211716	0.464489	-0.622135	0.680257	0.387554
0.322708	0.057689	0.449873	0.433470	-0.437448	-0.787873
0.106960	0.588536	0.639266	0.173484	0.973153	0.151250
-0.289884	0.373041	0.069722	-0.461532	0.506184	-0.728537
0.187574	0.055913	0.536540	-0.320591	-0.359667	0.876277
-0.069233	0.082330	0.353027	0.023888	-0.308457	0.950938
0.143558	0.409368	0.448873	0.617060	0.658844	0.430303
0.593879	0.034160	0.382688	0.176761	-0.134434	0.975030
-0.017780	0.033635	0.603964	-0.173727	-0.559260	-0.810584
0.017568	0.267509	0.279691	0.373603	-0.444115	0.814361
-0.278129	0.034867	-0.192388	-0.470925	-0.381282	-0.795521
-0.143300	0.325667	0.276999	0.511476	-0.773643	0.373991
-0.061332	0.322903	0.130920	-0.356677	-0.881627	0.309056
-0.039181	0.162073	-0.249185	-0.178662	-0.081496	-0.980530
0.180123	0.132973	0.194255	0.718679	0.556968	0.416276
-0.351978	0.117742	0.396676	-0.701302	0.339208	0.626987
0.015283	0.078460	0.501134	0.683701	-0.306189	-0.662420
0.022584	0.011186	0.589363	0.107866	0.045913	-0.993105
-0.058857	0.012250	0.552155	0.172577	-0.638025	-0.750428
-0.151892	0.196002	-0.144456	-0.844297	0.357909	-0.398828
0.231451	0.370779	0.637638	0.542417	-0.234958	0.806584
0.086146	0.019204	-0.114724	0.538129	0.155686	-0.828359
-0.181170	0.271931	0.442806	-0.937170	-0.003310	-0.348858
-0.234116	0.306334	0.679775	-0.492645	0.814473	0.306488
-0.462052	0.237953	0.220255	-0.679806	-0.490684	-0.545062
-0.345818	0.013736	0.409196	0.839050	-0.531737	0.115114
-0.052214	0.257840	0.354119	-0.511098	-0.859522	-0.000475
-0.486820	0.546861	0.435698	-0.647301	0.750597	0.132690
-0.625958	0.365534	0.171670	-0.611246	0.789675	-0.052839
0.226531	0.258544	0.064262	0.835758	-0.370836	-0.404956
-0.194769	0.123378	0.533009	-0.793017	0.496300	0.353286
-0.199773	0.248898	0.447616	0.886318	-0.346981	0.306667
0.112623	0.059317	0.834351	0.838699	0.400119	0.369444
-0.224889	0.114610	0.476193	0.632147	-0.637062	0.441069
0.244771	0.281889	0.041660	-0.357569	0.854182	0.377514
0.191712	0.355448	0.323699	0.653841	-0.711564	-0.257232
0.264021	0.077674	0.175562	0.746588	-0.022640	-0.664902
0.157977	0.110640	0.599702	-0.119811	0.805753	-0.580006
-0.167954	0.182598	0.143954	0.721791	-0.527058	0.448584
-0.133432	0.003383	0.545313	0.400870	-0.821611	0.405289
0.260757	0.026625	0.093659	-0.278655	-0.157345	0.947414
-0.469966	0.151173	0.565289	-0.742010	0.066301	0.667103
0.128226	0.485798	0.760993	-0.067504	0.575906	0.814724
-0.021857	0.618902	0.568160	0.423575	0.598775	0.679745
-0.111352	0.047414	0.363127	0.395546	-0.865781	0.306539
0.213016	0.132034	0.588224	0.531860	0.535232	0.656241
0.341971	0.315239	-0.127102	0.628896	-0.252934	-0.735197
-0.587609	0.000248	0.674018	-0.789125	-0.225797	0.571225
0.012484	0.197592	0.632598	-0.573529	0.154498	0.804484
0.017506	0.123734	0.254399	0.112334	0.887401	0.447102
-0.151457	0.154416	0.650213	-0.612121	0.490228	0.620471
0.171172	0.110682	0.693114	0.839116	0.541623	-0.050282
0.230096	0.212467	0.193237	-0.298027	-0.660084	0.689543
-0.076437	0.197745	0.222986	0.087043	0.032275	0.995682
-0.304758	0.232356	0.034544	-0.156052	0.667670	-0.727918
-0.133631	0.127102	0.093595	-0.890791	0.400360	0.214948
-0.012428	0.070152	0.300566	0.516191	-0.097525	0.850903
0.178809	0.156637	0.514314	0.561762	0.581479	0.588477
-0.208028	0.698416	0.258116	0.092682	0.990598	0.100625
-0.056362	0.261005	0.121479	0.114754	0.990620	-0.074190
0.087484	0.211513	0.155677	-0.158418	-0.200901	0.966718
0.037133	0.298251	0.216378	-0.533134	-0.331952	0.778188
0.092103	0.063511	0.218528	-0.406792	-0.320207	0.855563
-0.014209	0.777500	0.277499	-0.208450	0.959456	0.189716
0.528040	0.408739	0.258454	0.263166	0.573028	0.776133
0.097277	0.055440	0.642401	0.322046	-0.778746	-0.538369
0.011032	0.007578	0.607576	0.116209	-0.511189	-0.851576
0.054426	0.359020	0.874380	-0.035403	0.816347	0.576476
-0.073734	0.196156	0.571261	-0.962504	-0.208471	0.173568
0.120719	0.259723	0.239811	0.388541	0.894961	-0.219273
0.576204	0.156343	0.358494	0.811424	-0.144676	-0.566268
0.134263	0.004468	0.418124	0.052614	-0.703836	-0.708411
-0.275712	0.119885	0.336482	-0.997372	-0.071822	-0.009556
-0.410283	0.070793	0.336609	-0.974209	0.065900	-0.215811
0.118881	0.174980	0.034879	-0.463857	-0.148339	-0.873403
-0.100786	0.075533	0.271450	-0.603376	0.125802	0.787472
0.354125	0.118692	0.299851	-0.710253	-0.702142	0.050376
-0.156539	0.167769	0.361929	-0.455913	0.602464	0.655119
-0.000818	0.108757	0.086289	-0.377577	0.485996	-0.788190
-0.113738	0.054708	0.289122	0.295790	-0.691506	0.659035
0.610929	0.191786	0.476672	0.282838	0.193709	0.939404
-0.140996	0.633490	0.607084	-0.196551	0.912081	0.359827
-0.089710	0.006385	0.618288	-0.701513	0.068134	0.709392
-0.028966	0.466687	0.513285	0.472401	0.147844	0.868896
0.065365	0.013981	0.364384	-0.559285	0.001638	0.828974
-0.048195	0.160887	0.851847	-0.721716	0.527509	0.448175
-0.339059	0.198890	0.383401	-0.601624	0.074213	0.795324
0.168727	0.147043	0.288074	0.224983	-0.658767	0.717920
-0.294754	0.111542	0.034582	0.971614	-0.235947	-0.017161
0.113892	0.221727	0.707405	0.582811	-0.587835	0.561054
0.056120	0.008179	0.543171	0.922376	-0.087332	-0.376293
-0.239598	0.233211	-0.226896	0.122539	0.444278	-0.887469
-0.345617	0.061794	0.842865	-0.868040	0.323874	0.376313
0.511725	0.300778	0.054260	0.725510	0.657903	0.201989
0.279022	0.239814	0.230753	-0.251923	-0.956315	-0.148309
-0.033756	0.633864	0.517441	-0.595965	0.798897	-0.081176
0.054743	0.725416	0.111514	-0.339954	0.779550	-0.526055
0.168453	0.091926	0.216818	0.760590	0.113821	0.639178
0.135316	0.028843	0.411779	-0.279060	-0.256693	0.925329
0.016526	0.012008	0.546125	-0.327165	-0.257783	-0.909126
0.260258	0.218341	-0.116357	0.329253	0.049127	-0.942963
0.130743	0.087725	0.274578	0.239024	0.176788	-0.954785
0.038389	0.265107	0.149486	0.002775	-0.162708	0.986670
0.268865	0.260750	0.613597	0.890315	-0.242896	-0.385151
-0.143137	0.624323	0.002754	-0.208095	0.873492	-0.440122
-0.341530	0.009185	0.368630	-0.957432	-0.028915	-0.287208
0.092048	0.353774	0.218705	-0.341766	-0.820837	-0.457628
0.038356	0.313283	0.436434	-0.104096	0.601081	-0.792380
0.130235	0.452031	0.266816	0.268568	0.944132	-0.191013
0.014254	0.347434	-0.192699	-0.753000	0.323199	-0.573179
-0.125889	0.255870	0.437033	0.402357	0.736437	-0.543847
0.181674	0.123795	0.292643	-0.626522	-0.646009	0.436054
-0.226514	0.203220	0.506999	0.971466	-0.228130	0.064885
-0.225974	0.654811	0.145710	-0.549153	0.550330	-0.628943
-0.052492	0.565809	0.168960	-0.388045	0.474481	0.790120
0.143266	0.437124	0.387310	-0.091996	0.792476	-0.602925
-0.139181	0.043145	0.278193	-0.847749	-0.015075	0.530183
0.092050	0.149585	0.465126	-0.586786	-0.705318	-0.397756
0.627201	0.144332	0.164397	0.820356	0.207164	-0.533010
0.519511	0.077593	0.631622	0.724831	-0.209863	0.656184
-0.022855	0.121304	0.656212	-0.384884	0.664255	-0.640804
0.029867	0.202194	0.166085	0.458602	-0.722444	0.517455
-0.295853	0.039262	0.321535	-0.594475	-0.249289	0.764496
0.460514	0.120922	0.389434	0.973247	0.228136	0.027295
-0.150718	0.288565	0.032640	-0.783424	0.616563	0.078085
-0.286077	0.461290	0.320947	-0.535059	0.817362	-0.213613
-0.313050	0.045446	0.419131	-0.748440	-0.059232	0.660552
-0.013665	0.052709	0.863716	-0.431016	0.509015	0.745070
0.022123	0.171240	0.353288	0.736160	0.173434	0.654209
0.134930	0.122020	0.500610	0.230677	0.767133	-0.598578
0.111278	0.303729	0.363280	0.052184	0.923263	0.380607
0.216356	0.181681	0.241217	0.747025	0.664795	-0.000657
0.134951	0.146401	-0.033442	0.581817	0.533665	-0.613752
-0.175889	0.192484	0.213642	-0.353342	-0.302430	0.885260
-0.030214	0.289224	0.119318	-0.035918	-0.301172	0.952893
0.086904	0.030150	0.620828	0.574763	-0.048300	-0.816893
-0.023864	0.225006	0.477598	-0.782508	-0.621525	-0.037247
-0.009741	0.176202	0.764124	-0.318123	0.729345	0.605684
0.170652	0.225909	0.349314	0.891987	-0.451027	0.030549
-0.078522	0.281044	0.195302	0.833128	-0.545981	-0.088329
-0.378966	0.185070	0.580811	0.045834	-0.091597	0.994741
0.171903	0.519358	0.578217	0.472834	0.844769	0.250586
0.178212	0.127977	-0.022817	0.706297	0.224327	-0.671433
0.124019	0.012767	0.156918	0.973352	-0.189397	-0.129288
-0.271009	0.185222	0.725680	-0.884054	-0.369210	0.286589
-0.025130	0.428140	0.660180	0.261596	0.434456	0.861868
-0.015645	0.091325	0.645435	-0.237308	0.868917	0.434360
-0.008154	0.008768	0.978139	0.019271	-0.163925	0.986285
0.463736	0.041996	0.325917	-0.019079	0.697397	-0.716431
0.259553	0.416406	0.041184	-0.369259	-0.288996	-0.883249
-0.204162	0.288370	0.510759	-0.209200	0.229038	-0.950672
-0.683151	0.156030	0.061636	-0.865784	0.214221	-0.452246
0.082109	0.126449	0.066701	0.474212	0.241956	-0.846511
0.126566	0.356399	0.370438	0.916324	-0.016485	-0.400099
0.104250	0.018194	0.585678	-0.662076	0.413421	-0.625090
-0.139729	0.212296	0.150368	-0.648276	-0.675005	-0.352288
0.376343	0.317797	0.776979	0.478500	0.549884	0.684591
-0.015402	0.083653	-0.012797	0.087423	0.106209	-0.990493
0.075168	0.135622	0.880711	-0.045129	0.740892	0.670106
-0.155025	0.094076	0.267442	0.779148	-0.413607	0.471018
0.118519	0.206911	-0.159701	0.733722	0.489001	-0.471730
-0.247340	0.718797	0.374235	-0.324971	0.834834	0.444349
0.004808	0.278697	0.186196	0.144951	0.988605	-0.040609
-0.111224	0.178920	0.674408	-0.965102	0.148254	-0.215870
-0.216241	0.270614	0.105019	-0.036714	-0.054240	-0.997853
0.106552	0.026272	0.478543	0.295156	-0.892797	0.340288
0.057548	0.143179	0.024152	0.855467	0.381819	0.349844
-0.120857	0.044046	0.485137	0.946071	0.175713	-0.272166
-0.024474	0.353325	-0.253797	0.467121	0.346477	-0.813481
-0.217485	0.012092	0.447348	0.793380	-0.008895	0.608661
0.088450	0.033369	0.313861	0.376911	0.005760	0.926232
0.200633	0.212454	-0.023514	0.303984	0.830120	-0.467433
0.124738	0.053265	0.362082	0.327920	0.181044	0.927195
0.023348	0.457821	0.279056	0.992065	0.025556	-0.123099
-0.293750	0.461435	-0.109501	-0.451304	-0.194215	-0.870979
0.149754	0.070685	0.595748	0.218414	-0.680862	0.699086
0.506502	0.178764	0.369356	0.806058	-0.542327	-0.236962
0.035660	0.062401	-0.024825	0.222787	0.475610	-0.850977
-0.278971	0.060621	0.846553	0.010211	0.370413	0.928811
-0.199770	0.499867	0.001673	-0.068668	0.526467	-0.847418
0.052992	0.041814	0.266068	0.245943	0.058338	0.967527
0.293101	0.103896	0.213963	0.366387	-0.825551	-0.429216
-0.130600	0.115334	0.271188	-0.342497	0.336123	0.877335
-0.109939	0.103759	0.356816	0.265144	-0.710965	0.651327
0.143702	0.099132	0.707326	0.214248	0.601671	0.769474
-0.001156	0.748408	0.023364	-0.015401	0.934215	-0.356379
0.697509	0.010414	0.136578	0.888860	-0.059820	-0.454258
0.034370	0.130960	0.635736	0.170996	0.630898	-0.756788
-0.214239	0.136652	0.034357	-0.603307	0.053283	-0.795727
0.103960	0.213065	0.268282	0.356781	0.747292	0.560591
0.479803	0.141796	-0.042108	0.888992	0.365337	0.276085
0.216722	0.175632	0.398730	-0.418661	-0.568228	0.708407
-0.170650	0.101098	0.022279	-0.598269	-0.788550	-0.142348
0.077342	0.209825	0.147504	0.578559	0.636326	-0.510255
0.228212	0.096084	0.516606	0.866440	-0.381209	0.322430
-0.217282	0.298316	0.431560	-0.513765	0.827675	0.225830
-0.015713	0.134999	0.805777	0.016972	0.996610	0.080502
-0.009994	0.378913	0.140033	-0.831645	-0.521730	0.190169
-0.066070	0.005119	-0.073055	-0.317962	0.117082	-0.940846
-0.425665	0.070694	0.196843	-0.811485	0.074223	-0.579640
-0.271556	0.242714	0.090522	-0.493388	0.644703	-0.583889
-0.162400	0.237739	0.463358	0.868863	-0.465105	0.169570
-0.044715	0.044603	0.533795	0.647539	-0.585490	-0.487744
0.000051	0.132966	-0.027176	-0.063105	0.482799	-0.873455
-0.049413	0.256764	0.759949	-0.055349	0.947402	0.315224
-0.409766	0.514530	0.517766	-0.838440	0.486354	0.245922
-0.127136	0.288988	0.435028	-0.246922	0.850452	0.464501
0.091312	0.187297	0.673289	0.252769	0.783571	-0.567560
-0.248823	0.016932	0.184491	0.392323	0.003677	0.919820
-0.155780	0.066866	0.174424	-0.833273	0.252470	0.491849
0.334144	0.143689	0.264263	-0.922720	-0.360704	-0.135943
-0.225206	0.318013	0.536433	-0.723017	0.504885	-0.471527
0.052498	0.066933	0.318139	0.313810	0.428556	0.847268
-0.530506	0.225934	0.346521	-0.768723	-0.399319	0.499608
-0.264946	0.091687	-0.181539	-0.130307	0.003575	-0.991467
-0.175432	0.010901	-0.119263	0.160283	-0.801165	-0.576579
0.528084	0.309059	0.502623	0.989976	0.103826	-0.095745
-0.128750	0.203977	0.310075	-0.923670	0.339215	0.178232
0.038893	0.120726	0.414533	0.250916	-0.891695	-0.376725
0.084096	0.168374	0.611930	0.595699	0.096868	-0.797345
-0.202175	0.224703	0.213691	-0.608389	0.681110	0.407372
-0.120603	0.241566	0.374004	0.581788	-0.048146	-0.811914
0.177428	0.629316	0.633121	0.164977	0.691178	0.703601
0.333907	0.242271	0.606992	-0.037066	0.652938	0.756504
0.185719	0.045069	0.914067	-0.111138	0.569681	0.814317
0.338600	0.095705	0.475409	0.427219	-0.502025	-0.751967
-0.148058	0.114400	-0.266478	-0.040953	-0.000637	-0.999161
0.078115	0.071243	0.370232	-0.669896	-0.384324	0.635244
0.355644	0.035251	0.655572	0.753086	-0.514992	-0.409445
0.321293	0.069227	0.055822	0.514999	0.116086	-0.849294
0.118311	0.304855	-0.185928	0.450749	0.287253	-0.845169
-0.065224	0.122129	0.715578	0.161142	0.241330	0.956971
0.053509	0.053681	0.738644	0.202147	0.296643	0.933349
-0.062839	0.162782	0.083510	-0.381189	0.875332	-0.297469
-0.335011	0.002327	0.318887	0.622334	-0.221388	0.750792
0.088913	0.068953	0.639859	0.331958	0.200426	0.921756
0.026393	0.036280	0.085393	-0.761767	-0.276419	-0.585922
-0.145394	0.313676	0.521259	0.527277	0.404156	-0.747420
0.547617	0.429469	0.147076	0.525561	0.422629	-0.738356
0.222148	0.192365	0.197579	0.668691	0.658584	-0.345136
-0.194339	0.065484	0.433426	-0.506881	0.039895	0.861092
-0.031939	0.022136	0.098381	0.056323	-0.988181	0.142569
-0.420555	0.154679	0.074289	0.716749	0.146576	-0.681752
-0.002082	0.267093	0.090257	-0.001784	0.803188	-0.595722
0.017854	0.135391	0.932181	0.125275	0.204875	0.970738
0.282894	0.141238	0.207432	-0.463460	-0.000538	0.886118
-0.122315	0.522636	0.239177	0.306419	0.905571	-0.293339
0.101953	0.158659	0.266016	0.295538	0.618353	0.728215
-0.474524	0.315281	0.614441	-0.627682	-0.090418	0.773201
0.119019	0.588036	0.595115	0.255235	0.244335	0.935498
0.113131	0.192634	0.345993	0.401875	0.550656	0.731624
-0.066347	0.001645	-0.206863	0.706769	-0.082203	-0.702652
0.229809	0.013844	0.895134	0.382842	0.597038	0.704967
-0.216189	0.020890	0.749738	-0.933329	0.299810	0.197514
-0.358770	0.124900	0.741264	-0.505529	0.419966	0.753703
0.159179	0.014293	0.611204	-0.040539	-0.380480	0.923900
-0.137326	0.000276	-0.183338	-0.162278	-0.691059	-0.704346
-0.216060	0.304283	0.118482	0.476026	-0.865867	-0.153861
0.043492	0.039401	0.338275	0.396256	-0.320124	0.860524
0.109659	0.326235	0.245434	-0.221134	0.898357	0.379546
-0.588099	0.244547	0.426750	-0.842591	0.036431	0.537321
0.054460	0.021197	-0.257169	-0.525166	0.041733	-0.849976
0.099991	0.180548	0.113586	0.948073	-0.123752	0.292990
-0.206318	0.148734	0.255256	0.476877	0.087251	-0.874629
0.259588	0.135500	0.218316	-0.673305	0.186731	0.715396
-0.055614	0.050586	0.364786	-0.903953	-0.089988	0.418055
-0.150812	0.183611	0.420697	0.164412	-0.436012	0.884795
0.164227	0.235619	0.074168	-0.066161	0.749631	0.658541
-0.020449	0.288410	0.303434	0.999748	0.011673	0.019156
0.287412	0.056106	0.069961	0.332873	0.121316	-0.935135
0.002245	0.539299	0.378424	-0.781601	-0.059829	0.620902
0.121561	0.136408	0.658655	0.518023	0.810806	-0.272482
-0.191795	0.100278	0.580839	-0.879178	0.413860	0.236146
0.358084	0.142064	-0.212035	0.650751	0.364355	-0.666160
0.159422	0.097319	0.713040	0.772094	0.492374	-0.401793
0.019907	0.103802	0.937711	0.277602	0.652823	0.704811
0.153886	0.263043	0.199827	-0.389641	-0.249064	0.886649
-0.113378	0.064125	0.958496	-0.281652	0.176793	0.943089
-0.009402	0.234777	0.163465	-0.212528	0.673020	0.708432
0.279360	0.119565	0.325773	0.939982	0.340435	-0.023194
-0.003590	0.259433	0.240951	-0.005728	0.727719	0.685852
-0.277263	0.215085	0.393175	0.345030	-0.697870	0.627639
-0.413102	0.065020	0.561366	-0.468168	-0.777626	-0.419662
0.012964	0.222489	0.861303	-0.687777	0.228285	0.689093
0.218680	0.123901	0.364277	-0.220896	0.187252	-0.957153
-0.181466	0.191183	-0.212299	-0.295657	0.653004	-0.697261
-0.068295	0.276206	0.219130	-0.223773	0.973520	0.046729
-0.135283	0.045122	0.095095	-0.776673	0.522651	-0.351590
-0.111129	0.180188	-0.067059	-0.576228	0.769372	-0.275732
-0.274260	0.215954	0.250363	0.271988	0.234438	0.933307
0.390758	0.263597	0.216692	0.827739	0.406113	-0.387195
0.021588	0.227741	0.353323	-0.668297	-0.424191	-0.611099
0.612098	0.191713	0.304994	0.866112	0.433412	-0.249006
0.244596	0.100427	0.248680	0.803778	0.478092	-0.354073
-0.186391	0.211820	0.259522	-0.643930	0.744786	0.175068
-0.157713	0.143679	0.059451	-0.090791	0.275475	-0.957011
0.007717	0.143623	0.275068	0.045917	0.539596	-0.840671
0.615273	0.336001	0.314033	0.386121	0.910053	0.150713
-0.189090	0.258956	0.198329	-0.405028	0.746306	0.528186
0.027887	0.230141	0.306302	-0.026850	0.959348	-0.280944
-0.153390	0.081851	0.206851	-0.980302	0.005728	-0.197420
-0.045840	0.075969	0.502693	0.129380	0.682038	-0.719781
0.564526	0.531529	0.146102	0.687513	0.689782	-0.226992
-0.058423	0.197713	0.850902	-0.273234	0.920412	0.279616
0.047627	0.313806	0.216052	0.221011	-0.944904	0.241474
-0.468450	0.304475	0.394445	-0.950559	0.275940	-0.142461
-0.104095	0.121296	0.161186	0.029652	-0.260763	-0.964947
-0.080336	0.063182	0.107128	-0.770859	-0.276297	-0.573966
-0.151860	0.135914	0.114184	-0.739081	0.651599	0.170817
0.501421	0.320360	-0.026303	0.691319	-0.203483	-0.693305
0.231017	0.289874	0.637686	0.752823	0.448073	-0.482170
0.096869	0.353572	0.147078	-0.345472	-0.934967	0.080538
-0.057830	0.111158	0.314391	-0.048352	0.723859	0.688252
0.008039	0.244146	0.108887	-0.068172	0.192548	-0.978917
0.572142	0.186975	0.217435	0.788499	0.467736	-0.399366
-0.295125	0.055830	0.553217	0.959210	-0.193681	0.205924
0.345759	0.390882	-0.138494	0.305881	0.446901	-0.840664
-0.508918	0.240735	0.427502	-0.387791	0.817007	0.426754
0.171744	0.148281	0.625284	0.777947	0.463564	0.424154
0.354789	0.479785	0.285261	0.862254	0.342842	-0.372797
-0.144987	0.305520	0.469058	-0.482108	0.870554	0.098525
0.082997	0.390497	0.726044	0.143669	0.989013	0.034818
-0.066951	0.085298	0.578327	0.578327	0.271864	-0.769174
-0.061556	0.266004	0.084013	-0.314888	0.547924	-0.775000
0.147711	0.058520	0.359892	0.837203	0.205904	-0.506651
0.002545	0.192251	0.192857	0.049652	0.945198	0.322701
-0.182397	0.134580	0.302082	0.075544	-0.490771	0.868007
-0.045958	0.081963	0.422557	0.153888	0.146389	0.977184
-0.125550	0.051562	0.627757	0.873208	-0.453076	-0.179527
-0.117191	0.143165	-0.093462	-0.454709	0.197355	-0.868499
0.058573	0.047699	0.283695	0.231213	0.213820	0.949116
-0.063219	0.138352	-0.047908	-0.359668	0.706685	-0.609291
0.208235	0.380965	0.071504	-0.570468	0.354011	-0.741109
0.313896	0.273147	0.824813	0.777540	0.248553	0.577627
-0.015225	0.702290	0.300270	-0.000300	0.993058	-0.117627
0.188219	0.085426	0.058510	0.051143	-0.147975	-0.987668
0.398435	0.073132	0.311691	-0.066172	-0.903584	-0.423270
-0.016271	0.164608	0.601563	-0.279258	-0.955484	-0.095215
-0.363790	0.346669	0.141148	0.102766	0.967689	-0.230254
-0.275327	0.305692	0.423428	0.578966	0.786895	0.213528
0.150981	0.330162	0.712268	0.344474	0.802871	0.486554
0.208409	0.006238	0.505716	0.821007	0.154324	-0.549665
-0.111896	0.078065	0.372740	0.556868	-0.826954	0.077745
-0.024674	0.046732	-0.038470	-0.306363	0.116336	-0.944779
0.321267	0.417542	0.280205	0.594902	-0.298613	-0.746273
0.229482	0.017154	0.204620	-0.097166	-0.440852	0.892305
-0.072569	0.270181	0.460277	0.751206	-0.411930	-0.515755
-0.063767	0.412874	-0.075021	0.409310	0.894348	-0.180574
0.447592	0.295623	0.546898	0.406889	0.730150	0.548928
0.087981	0.488742	0.306668	0.158179	0.935062	-0.317237
0.388651	0.249983	0.292110	-0.007292	0.999353	-0.035211
-0.069990	0.372350	0.224137	0.209469	-0.974418	0.081436
-0.236274	0.428069	0.582854	0.393752	0.205498	0.895952
0.202614	0.005087	0.413543	0.957112	-0.289123	-0.018592
-0.071226	0.039189	0.523705	0.766481	-0.454559	-0.453742
-0.033523	0.123122	-0.002916	-0.680889	0.002881	-0.732381
0.378627	0.638863	0.337433	0.192241	0.961681	0.195481
0.147477	0.679525	0.424163	-0.084536	0.647466	0.757391
-0.072654	0.006723	0.176695	0.323126	0.005210	0.946342
0.267823	0.329619	0.486042	0.891478	0.040476	-0.451252
0.012228	0.126002	0.700699	-0.987314	-0.123902	-0.099290
0.021323	0.007635	0.563610	-0.503558	-0.251948	-0.826409
-0.019284	0.085536	0.027648	0.233085	0.288620	-0.928639
0.245478	0.233978	0.166175	0.335660	0.104190	0.936203
0.496339	0.197330	0.225388	-0.313455	0.930989	0.187096
-0.084574	0.132586	-0.107078	0.205819	-0.951630	-0.228122
0.088985	0.209819	0.018055	0.615936	0.443658	-0.650992
0.146075	0.320044	0.873975	-0.007102	0.775193	0.631685
-0.129494	0.010432	0.281245	0.129485	-0.484399	0.865212
-0.337128	0.124873	0.253021	-0.493876	-0.015629	0.869392
-0.210657	0.298857	0.317197	-0.593115	0.795595	-0.123466
0.320116	0.225286	0.361124	0.821146	0.557322	-0.122928
0.261768	0.214559	0.572646	0.230312	0.894635	0.382865
0.454925	0.194765	0.332283	0.921788	0.334794	-0.195500
0.051548	0.411635	0.380663	-0.715130	0.255655	-0.650561
-0.323712	0.355031	0.599998	-0.599960	0.739690	0.304805
0.121328	0.113184	-0.052385	0.088410	0.227188	-0.969830
-0.694710	0.089576	0.530404	-0.979028	-0.063508	0.193576
0.337929	0.145320	0.103165	0.518094	0.476968	-0.709986
0.070879	0.011500	0.821702	0.967336	0.155646	0.200089
-0.019556	0.087878	0.338416	-0.117793	0.240427	0.963493
0.040371	0.196928	0.380402	0.505951	0.046589	0.861303
0.049331	0.211276	0.412914	-0.202067	-0.693629	0.691410
0.220003	0.052746	0.449633	-0.439267	-0.220406	0.870899
0.176988	0.109214	0.413784	0.870463	0.192462	-0.453048
0.486851	0.457623	0.332635	0.604575	0.794223	0.060821
-0.566972	0.104255	-0.068643	-0.757183	0.191497	-0.624502
0.523774	0.333702	-0.080839	0.476395	0.842290	-0.252182
0.236101	0.263714	0.511018	0.446381	-0.161026	0.880236
0.006270	0.487554	0.319626	0.760127	0.549559	-0.346687
0.028774	0.060658	0.583174	0.004074	0.712386	-0.701776
-0.193552	0.234896	0.329063	0.367253	-0.225395	0.902398
0.368796	0.215545	-0.093448	0.987688	0.116967	-0.103882
0.088106	0.037564	0.158517	-0.116105	-0.717060	-0.687273
0.236933	0.188345	0.377207	0.731825	0.592756	0.336262
-0.036967	0.336036	0.412941	-0.162257	0.982327	0.093311
0.237925	0.007844	0.818304	-0.009325	0.615618	0.787989
-0.110754	0.359651	0.111327	-0.318123	0.878553	-0.356290
-0.062837	0.132727	0.313819	-0.460488	0.625908	-0.629436
-0.366123	0.303325	0.069341	-0.157843	0.946741	0.280655
0.511318	0.162355	0.126462	0.559713	0.334674	0.758099
-0.045534	0.041301	0.939231	-0.330643	0.246980	0.910866
0.146608	0.167066	0.857601	0.167700	-0.600591	0.781772
-0.446901	0.186102	0.017308	-0.820276	0.488671	-0.297233
-0.020668	0.183432	0.499067	-0.008894	-0.017517	0.999807
-0.113241	0.253024	0.301008	-0.876523	-0.390961	0.280815
-0.140762	0.118392	0.722159	0.918242	0.367709	0.147043
-0.074916	0.173380	0.305018	-0.039005	-0.631616	0.774300
-0.280217	0.160027	0.408662	0.584302	-0.551225	-0.595602
0.522038	0.185167	0.745289	0.878689	0.065298	0.472908
-0.172094	0.225952	0.859445	-0.324795	0.860674	0.392108
-0.543396	0.279744	0.661002	-0.649642	0.597054	0.470630
-0.149861	0.116724	0.550791	-0.787830	0.514070	0.339198
-0.267247	0.007008	0.002316	-0.771139	-0.518100	-0.370022
0.245036	0.337577	0.265108	-0.134740	-0.102696	0.985545
0.190276	0.095302	0.523897	-0.850867	0.424317	-0.309808
-0.404503	0.129308	0.443573	0.004914	-0.993520	-0.113553
-0.043624	0.055615	0.528926	0.581834	0.213287	-0.784842
0.108429	0.340167	0.471764	0.318702	0.916434	0.242028
-0.268247	0.060904	-0.059516	-0.758895	-0.480326	-0.439733
0.027561	0.232387	0.235136	-0.451856	0.892091	0.000329
-0.264164	0.106350	-0.269116	-0.327616	-0.360498	-0.873332
-0.085364	0.164500	0.529688	0.213060	0.385550	0.897751
-0.091389	0.185625	0.693120	0.071916	0.907380	-0.414113
-0.046930	0.076234	0.351767	0.115387	-0.374100	0.920182
-0.198331	0.336481	0.830034	0.304515	0.681936	0.665006
-0.055691	0.204779	0.335875	0.580606	0.481190	0.656775
0.059227	0.140501	0.561723	-0.145257	-0.171178	-0.974473
-0.106880	0.122115	0.542540	0.118273	-0.740647	-0.661403
-0.092144	0.029920	0.234511	-0.490169	0.147423	0.859070
0.088031	0.179127	0.032608	0.492740	0.686541	-0.534667
-0.549454	0.211416	0.668720	-0.839058	-0.234187	0.491058
0.091755	0.114930	0.418181	-0.679946	-0.521587	-0.515384
-0.024111	0.037654	0.435208	0.346377	-0.308864	-0.885791
-0.030407	0.584038	0.003613	0.322849	0.630114	-0.706204
0.449020	0.196366	0.523251	0.561610	0.574445	-0.595489
-0.226503	0.474444	0.010980	-0.838223	0.545152	-0.013821
-0.212199	0.139313	0.632447	-0.753623	0.629750	0.188329
-0.201490	0.060187	0.819426	-0.835219	0.493450	0.242728
-0.236926	0.239333	0.343751	0.012127	0.052346	-0.998555
-0.051021	0.106179	0.078903	-0.742368	0.086946	-0.664326
0.051880	0.141545	0.849826	0.557890	0.742854	0.370036
-0.000341	0.080720	0.708625	-0.599534	0.515783	0.611985
-0.132912	0.149897	0.225375	-0.813622	-0.278710	0.510235
-0.275509	0.158547	0.358823	-0.881945	0.446215	-0.151874
0.055187	0.008027	0.751747	-0.078698	-0.580603	0.810374
0.066479	0.096314	0.297366	0.301718	0.360440	0.882638
-0.149443	0.006761	0.431755	0.812919	0.101159	-0.573523
-0.161621	0.190687	0.176208	-0.584219	0.650370	-0.485496
-0.053194	0.100045	0.307055	-0.108187	0.477070	0.872181
-0.044208	0.136256	0.109326	-0.046308	-0.763538	0.644100
0.064094	0.183035	0.276713	-0.127900	0.836901	-0.532202
0.040240	0.138840	0.927920	0.156401	0.279041	0.947457
-0.287795	0.050398	0.504282	0.628945	0.581398	-0.516144
-0.024387	0.553344	0.460890	-0.729261	0.529466	-0.433409
-0.131873	0.162780	0.598789	-0.691849	-0.336964	-0.638592
-0.100564	0.541363	0.090588	-0.422778	0.774235	-0.470976
-0.261315	0.023558	0.439589	-0.172497	-0.918640	-0.355450
0.160944	0.000848	0.195652	0.884500	-0.175506	0.432270
0.345296	0.213574	0.384464	0.384533	-0.905807	-0.177901
-0.067483	0.016356	0.902987	-0.123119	0.150722	0.980880
0.071780	0.078090	0.521350	-0.084539	0.909659	-0.406661
-0.114076	0.028671	0.254609	-0.940352	-0.301665	-0.157279
-0.111854	0.124103	0.361986	-0.347143	-0.009771	0.937761
0.117133	0.216294	0.957725	0.223403	0.213779	0.950994
0.190255	0.279569	-0.032210	0.910131	-0.276690	0.308390
0.033201	0.055898	0.363808	-0.509002	0.394900	-0.764834
-0.441685	0.400671	0.568340	-0.998789	-0.009178	0.048331
0.085010	0.301592	0.609625	0.339543	0.747147	-0.571386
0.198665	0.216793	0.305037	-0.332388	0.605828	0.722835
0.174346	0.094688	0.738406	0.584625	0.337607	0.737723
0.516306	0.414999	0.519864	0.897206	0.409163	-0.166152
-0.143468	0.297735	0.487054	-0.425645	0.883942	0.193579
-0.655438	0.102594	0.488451	-0.779986	0.277391	0.560960
0.022926	0.122806	0.714521	0.936517	0.345093	-0.062027
0.143520	0.591173	0.000194	0.312943	0.944873	0.096341
0.303521	0.503701	-0.162577	0.706492	0.519292	-0.480837
0.351360	0.696214	0.200229	0.405990	0.882152	-0.238706
-0.053525	0.066843	0.244818	-0.407411	0.138301	0.902712
-0.001348	0.170346	0.655737	-0.020821	0.956530	0.290888
0.421525	0.004407	0.613392	0.694053	-0.686281	0.217506
-0.670055	0.247520	0.447499	-0.902650	0.199194	0.381502
-0.108277	0.007491	-0.081182	-0.325771	-0.264938	-0.907569
-0.020148	0.012079	0.594136	-0.186799	-0.013647	-0.982303
0.077175	0.037863	0.319006	0.349712	0.129653	0.927842
0.326274	0.042752	0.572141	0.891886	0.290438	-0.346677
0.080543	0.199980	0.090095	0.484125	0.627127	-0.610192
-0.384463	0.057737	0.528911	-0.288794	-0.944667	0.155568
0.049221	0.123838	-0.065120	0.107976	0.676527	-0.728459
-0.014316	0.061058	0.336233	-0.092404	0.252903	0.963069
0.252085	0.119615	0.363044	-0.844303	-0.503435	-0.183588
-0.014350	0.272723	0.242334	0.953720	0.064915	0.293604
0.447023	0.443939	0.320229	0.593433	-0.092560	0.799544
0.082403	0.117003	0.591610	-0.615447	0.363304	-0.699454
0.022236	0.021167	0.448188	0.345938	-0.922072	0.173521
-0.132022	0.038311	0.755688	0.944469	0.073316	0.320318
-0.197691	0.580077	0.519199	-0.507392	0.823149	0.254912
-0.420320	0.252601	-0.113384	0.335292	0.455683	-0.824580
-0.099494	0.014216	0.387388	0.691845	-0.562702	0.452456
0.080119	0.053031	0.664670	0.290395	0.246471	0.924620
0.020215	0.380629	0.686849	0.368839	0.929371	0.015090
-0.431319	0.087185	0.736487	0.180514	0.432965	0.883151
0.342769	0.266737	0.304005	0.212828	0.275908	0.937326
-0.158887	0.481232	-0.181565	-0.207078	0.200024	-0.957658
0.034652	0.040669	0.591739	-0.629070	-0.123456	-0.767483
-0.227059	0.147567	0.564326	-0.790411	-0.432867	-0.433447
-0.162642	0.118738	0.506991	-0.821427	0.568778	-0.041834
0.204243	0.212948	-0.110160	0.971003	0.234289	-0.047558
-0.066157	0.212417	0.449033	-0.329422	0.932677	0.146951
-0.142466	0.219746	0.407449	0.904625	-0.286691	0.315375
-0.122848	0.297985	0.144133	-0.442201	-0.896829	0.012461
0.070236	0.192261	0.538845	0.098121	0.843043	0.528821
-0.110423	0.097571	-0.041029	-0.519773	-0.713488	-0.469862
-0.026133	0.229142	0.080964	-0.616410	-0.157952	-0.771421
-0.233357	0.212128	0.160513	0.960377	-0.180105	-0.212695
0.040992	0.001000	0.486711	-0.982042	-0.151937	0.111839
-0.293053	0.020967	0.429885	-0.397096	0.240656	-0.885663
-0.109586	0.005739	-0.144689	-0.399553	-0.022594	-0.916432
-0.416756	0.138854	0.215421	0.096455	-0.927322	-0.361622
-0.115411	0.365668	0.252013	0.007466	-0.591665	0.806149
-0.222869	0.235135	0.717608	-0.630432	0.767630	0.115325
0.034946	0.138990	0.287325	0.167387	0.675731	0.717892
0.209205	0.281256	0.597426	-0.228694	0.745816	0.625665
-0.577436	0.006283	0.021183	-0.487591	-0.309967	-0.816195
0.002982	0.112713	0.817139	-0.183348	0.972430	0.144097
-0.013088	0.231336	0.364051	-0.443654	0.782302	-0.437236
-0.195424	0.333166	0.527224	0.441718	-0.309074	0.842234
0.263677	0.070263	0.785708	0.654273	0.315638	0.687241
-0.187045	0.202317	0.834747	-0.653593	-0.254243	0.712865
0.120945	0.089422	0.792924	0.594183	0.195020	0.780329
-0.181120	0.524646	-0.000028	-0.224861	0.659520	-0.717266
0.195839	0.136628	0.324427	-0.236106	-0.321749	0.916914
-0.628354	0.194746	0.175418	-0.867606	-0.449353	0.212938
0.153506	0.337056	0.448352	0.299224	0.951813	-0.067212
-0.276303	0.683196	0.321596	-0.493691	0.860572	0.125237
-0.029520	0.001184	0.542133	-0.686682	-0.500646	-0.527088
0.104063	0.131310	0.400630	0.916648	0.249583	0.312194
-0.297583	0.029601	0.199496	0.386800	-0.638375	0.665480
0.144154	0.467834	0.644515	-0.497245	0.861819	0.100078
-0.476877	0.295581	0.532313	-0.984408	0.127866	0.120797
0.215725	0.685827	0.524861	0.354153	0.806149	0.474025
0.020168	0.215631	-0.003276	0.527401	0.815308	-0.239001
0.036956	0.078230	-0.059645	-0.215597	0.206175	-0.954468
0.084655	0.129522	0.153802	0.497742	0.867321	0.002599
0.157400	0.140300	0.103581	0.759293	0.647903	0.060799
-0.091606	0.180801	0.464016	-0.415925	0.906222	-0.075952
-0.321171	0.077420	0.354868	0.850864	0.128510	0.509426
0.427552	0.113342	0.088011	-0.721181	0.343779	-0.601427
0.041922	0.016627	-0.057784	0.192549	0.117805	-0.974190
0.286513	0.197627	0.871043	0.662643	0.027702	0.748423
0.034153	0.642688	0.458417	-0.444057	0.403211	0.800146
-0.449470	0.030208	0.442264	-0.854144	-0.332683	-0.399700
0.216922	0.062126	0.449891	0.853616	0.264229	0.448913
0.140907	0.709558	0.377600	0.610377	0.784912	-0.106557
0.103631	0.324919	0.416328	0.340915	-0.852820	0.395570
0.191567	0.698616	0.337242	0.703909	0.691096	-0.164006
0.173880	0.192121	0.219944	0.562928	0.689759	0.455351
0.369384	0.154676	0.231094	-0.660647	-0.045243	0.749332
-0.229359	0.024441	0.311074	0.342063	-0.618688	0.707261
0.069384	0.239693	0.174402	-0.255767	-0.964543	-0.065111
0.118588	0.134497	0.912452	0.455710	0.115166	0.882647
0.115740	0.364172	0.664669	-0.163170	0.901579	-0.400662
-0.149949	0.036831	0.365494	0.892413	-0.044160	-0.449054
-0.392960	0.156731	0.249897	0.363379	-0.929851	0.057728
-0.098539	0.096363	0.682034	-0.558405	0.492388	0.667636
0.101292	0.021010	-0.026089	-0.908283	0.007332	-0.418293
0.190444	0.148758	0.102700	-0.505625	0.675718	0.536422
0.301549	0.184825	0.679316	0.942929	-0.275730	-0.186703
0.143719	0.131598	0.220065	0.801727	0.376923	0.463856
-0.005269	0.055941	-0.116319	0.977334	-0.189299	-0.094783
-0.009218	0.152936	0.103733	0.616278	0.101036	-0.781021
-0.456440	0.376789	0.518591	-0.384169	0.923249	0.005092
0.175603	0.043315	0.239555	0.849136	0.218623	0.480803
-0.308796	0.118892	0.321740	-0.620963	0.378427	0.686439
0.144764	0.105507	0.307504	-0.532383	-0.451424	0.716090
-0.484598	0.209555	-0.081446	-0.462958	0.488027	-0.739932
-0.032599	0.057286	-0.152510	-0.640258	0.175599	-0.747820
0.267904	0.118311	0.075054	0.482360	0.303420	-0.821745
0.178613	0.218886	0.273659	0.477079	0.849014	-0.227091
0.184393	0.012311	0.358238	0.712043	0.290640	-0.639159
-0.010711	0.179717	-0.185951	-0.136254	0.201998	-0.969862
0.000403	0.357110	0.413658	0.972092	0.067618	0.224643
0.021763	0.627515	0.658380	0.002603	0.878859	0.477074
-0.236085	0.195268	0.218530	-0.433681	-0.803698	0.407419
0.098209	0.188237	-0.082249	0.931719	0.353109	-0.084930
-0.224238	0.178032	-0.133822	-0.188545	0.066456	-0.979813
0.013349	0.022116	0.252981	-0.377700	-0.055741	0.924249
0.070615	0.178671	-0.095626	-0.008316	0.163218	-0.986555
0.235704	0.229433	0.727672	0.766472	0.509625	0.390899
-0.197232	0.435578	-0.106453	-0.857510	0.504343	-0.101563
-0.177373	0.136555	-0.057363	-0.690506	0.069003	-0.720028
-0.067366	0.344159	0.444689	0.664016	-0.667083	0.337762
-0.018039	0.099806	0.473003	0.119505	-0.990273	-0.071262
-0.469869	0.368473	0.254163	-0.437589	-0.036409	-0.898437
-0.068498	0.016200	-0.068621	-0.371350	0.065482	-0.926181
-0.277376	0.179127	-0.105294	-0.793991	0.073757	-0.603439
-0.041551	0.047979	0.422470	0.246125	-0.763760	0.596735
-0.288914	0.203801	0.163211	-0.067816	-0.659578	0.748571
0.640096	0.374182	0.253184	0.881074	0.423159	-0.211292
-0.049319	0.738663	0.079735	-0.050798	0.925622	-0.375024
-0.314460	0.156535	0.305305	0.952806	-0.301692	-0.033809
-0.066714	0.105723	0.377361	-0.348409	0.487237	-0.800757
0.097859	0.088822	-0.023185	0.542863	0.334172	-0.770473
0.296891	0.138751	-0.016515	0.913517	0.181519	-0.364056
-0.556989	0.024987	0.748942	-0.766283	0.016551	0.642290
-0.437928	0.078139	0.547186	-0.756025	-0.262018	0.599811
-0.536072	0.134280	0.746852	-0.716135	0.292477	0.633725
-0.078898	0.279558	0.205982	0.335856	-0.931643	-0.138718
0.359366	0.258347	0.281268	-0.889140	0.443331	-0.113520
0.017106	0.117241	0.795326	0.199591	-0.868220	0.454265
0.021890	0.406894	0.439523	-0.023082	0.983955	0.176919
0.522133	0.103155	0.716216	0.861298	0.167286	0.479773
-0.096623	0.176472	0.623601	-0.227339	0.554109	-0.800800
0.098396	0.161428	0.256873	-0.171704	0.718484	0.674016
0.438608	0.081045	0.546828	0.621425	-0.710623	-0.329919
-0.338132	0.092938	-0.162015	-0.573797	0.306881	-0.759330
0.185851	0.577569	-0.011650	0.134603	0.964832	-0.225788
-0.349049	0.164373	0.451583	-0.748861	0.341152	0.568175
0.186368	0.038108	0.621608	0.899399	0.188542	0.394378
0.242362	0.305102	0.037114	-0.182713	0.281944	-0.941872
0.012619	0.115724	0.246631	0.615490	-0.219311	0.757017
-0.098358	0.622262	0.533212	-0.480442	0.822744	0.303754
-0.027289	0.123873	0.556296	0.345721	0.911179	0.224121
0.296028	0.134934	0.158065	0.378087	-0.795762	0.473089
0.554647	0.322290	0.373708	0.411097	0.668479	-0.619787
0.217705	0.131235	0.103002	0.934846	0.223186	0.276137
0.064603	0.091569	0.340397	-0.137737	-0.066687	0.988221
-0.026724	0.124660	0.985503	-0.191468	0.173747	0.965998
-0.368176	0.127440	0.368604	0.189134	-0.924191	-0.331812
0.264498	0.423141	0.360360	0.469580	-0.240353	0.849544
0.574286	0.159204	0.632554	0.995841	0.067225	0.061498
0.135987	0.131875	0.536180	-0.628398	-0.576916	-0.521808
0.062038	0.227355	-0.088650	0.334438	0.587561	-0.736833
0.113972	0.095094	0.896599	0.284775	0.043832	0.957592
-0.031829	0.319088	0.572397	0.642058	-0.310621	0.700911
0.166109	0.187524	0.487724	-0.324079	0.464648	0.824060
-0.188258	0.083565	0.071381	-0.828680	-0.044803	-0.557926
-0.145386	0.167570	0.635303	-0.677278	0.675072	-0.292529
-0.234554	0.323133	0.508775	-0.506431	-0.846871	0.162284
-0.181943	0.337770	-0.123034	-0.594880	-0.646883	-0.477138
-0.161776	0.112768	0.494131	-0.708648	0.448811	0.544414
0.033975	0.119227	0.199921	0.164207	0.554006	0.816158
-0.112010	0.196446	0.433753	0.381523	0.419299	0.823789
0.321031	0.146851	0.060645	-0.218530	-0.952484	0.212176
-0.022764	0.169981	0.404852	0.153777	-0.376683	0.913489
0.556391	0.294228	0.498306	0.861843	0.305324	0.404974
-0.438194	0.438928	0.582158	-0.306756	0.928043	0.211274
0.185737	0.120716	0.159041	0.903670	0.352066	0.243780
-0.289159	0.032576	0.853620	-0.426743	0.736765	0.524469
0.145594	0.424010	0.451830	0.668821	0.329106	-0.666609
-0.328842	0.257144	0.025836	-0.315016	0.714610	0.624578
0.045132	0.002806	0.644115	-0.984604	0.094141	-0.147282
-0.249857	0.159875	0.197869	-0.390902	0.674847	-0.625921
-0.097384	0.382392	0.253886	0.584297	-0.355414	-0.729574
-0.147705	0.147809	-0.015520	-0.697194	0.692785	-0.184308
-0.169661	0.410972	0.363934	-0.414043	0.437977	-0.797963
-0.468944	0.329343	0.341807	-0.749059	0.660461	-0.051975
-0.001476	0.578846	0.190264	0.941121	0.196088	0.275391
0.113265	0.165603	0.493667	-0.804959	-0.589764	0.064960
0.033364	0.166745	0.506550	0.920548	-0.297274	-0.253417
0.386680	0.245215	0.790705	0.255075	0.811271	0.526095
0.143837	0.121066	0.499144	0.727286	0.640625	0.246280
0.129814	0.370450	0.679430	-0.110091	0.706576	0.699021
-0.071666	0.264356	-0.182597	0.647665	-0.076065	-0.758119
0.100091	0.184239	0.689437	0.327473	0.812488	0.482312
-0.100265	0.002164	0.485084	0.932866	-0.200496	0.299270
0.239049	0.086727	0.410604	0.257750	-0.947688	0.188289
0.048891	0.259599	0.607547	0.994903	-0.080792	0.060330
-0.108869	0.235246	0.783470	0.070851	0.858010	0.508724
-0.092914	0.219093	0.186434	-0.132646	0.879874	0.456319
0.309090	0.103993	0.648701	0.724904	0.275612	0.631310
-0.376254	0.033400	0.207975	0.999467	-0.014736	0.029141
0.187714	0.186590	0.301061	-0.570941	-0.531147	0.626026
0.030885	0.117298	-0.035197	0.115798	0.437964	-0.891504
0.258156	0.555175	0.551432	-0.409942	0.821076	0.397217
0.209556	0.288254	0.395447	-0.491968	-0.784217	0.378116
-0.131801	0.022286	-0.002893	-0.544142	-0.137018	-0.827729
-0.554678	0.277795	0.446607	-0.916312	0.399276	0.030851
-0.166497	0.034254	0.222582	0.759438	-0.273302	-0.590390
-0.104289	0.396964	0.142047	0.253775	0.848854	0.463729
0.018608	0.276819	0.127642	0.163483	0.606722	-0.777922
-0.480452	0.209712	0.222887	-0.909809	0.388957	-0.144780
0.145198	0.400993	0.696390	0.085077	0.859816	0.503466
-0.567002	0.050489	0.075015	-0.969847	0.227057	0.088559
0.157251	0.063657	0.060788	0.925108	0.039715	-0.377622
0.184199	0.288051	0.211479	-0.299397	-0.410616	0.861252
-0.361250	0.450541	0.700965	-0.410352	0.752977	0.514429
-0.158126	0.168402	0.428023	0.475504	-0.860367	0.183482
-0.565165	0.145724	0.550668	-0.655834	0.748417	0.098761
0.140145	0.248103	0.253319	0.437243	0.897737	0.053723
-0.055707	0.204155	0.208759	-0.082903	0.199555	0.976373
-0.636264	0.338336	0.235697	-0.638780	0.552948	0.534985
0.053691	0.236707	0.473131	0.333982	0.722343	0.605539
0.101640	0.281076	-0.144293	-0.779025	0.190634	-0.597309
0.095648	0.056064	-0.026476	0.220483	0.055101	-0.973833
0.269716	0.017415	0.394992	-0.984080	-0.156507	0.084212
-0.450828	0.061682	0.314310	0.325484	-0.432487	0.840842
-0.187698	0.213094	0.411236	-0.795684	0.440668	0.415570
-0.617516	0.280721	0.429141	-0.984002	0.177950	-0.008613
0.239749	0.144324	0.247515	0.611698	0.416337	0.672673
0.403781	0.070516	0.122458	0.197294	0.261327	-0.944872
-0.111585	0.096730	-0.168487	0.771770	0.382369	-0.508099
0.121859	0.039310	0.299447	0.602500	0.198301	0.773092
0.354126	0.195676	0.220985	0.352658	-0.601590	-0.716744
-0.436020	0.201834	0.558990	-0.972642	0.195955	-0.124773
0.276969	0.005676	0.547370	-0.013521	0.608837	-0.793180
-0.231513	0.039747	0.730682	-0.114973	-0.886582	0.448055
-0.140287	0.334908	0.494294	-0.587180	0.596123	0.547592
0.148055	0.161341	0.517123	0.792629	0.538960	-0.285065
0.230288	0.186063	0.443990	-0.736487	-0.426900	0.524731
-0.364298	0.027838	0.236388	-0.818725	0.029228	-0.573441
-0.123430	0.250140	0.390500	-0.191225	-0.980693	0.040922
-0.150103	0.237612	0.153694	-0.458891	0.787958	-0.410537
-0.260379	0.296968	0.602168	-0.505219	0.539484	-0.673580
-0.044950	0.366201	0.273364	0.270533	0.367819	0.889675
0.320174	0.068431	0.516553	-0.338100	-0.918469	-0.205189
0.196978	0.178736	0.175350	0.675727	0.736641	-0.027418
0.145937	0.129118	0.448959	0.990038	-0.085612	-0.111783
-0.205474	0.299857	0.233622	0.503432	-0.206470	0.839003
-0.360958	0.249752	0.328738	-0.595294	0.719062	-0.358575
0.609142	0.279462	0.581821	0.502137	0.519707	0.691204
-0.108387	0.116668	0.202327	0.909345	0.062113	0.411380
-0.114772	0.027322	0.456373	0.186539	-0.617688	0.763979
-0.256544	0.449783	0.064985	0.181387	0.357198	-0.916247
0.194341	0.167613	0.202581	-0.322418	0.169129	0.931366
-0.067971	0.265200	0.122926	-0.578990	-0.813428	0.055725
-0.050095	0.022408	-0.203436	0.211058	0.064668	-0.975332
-0.020674	0.284335	0.187578	-0.320225	-0.423892	0.847214
-0.147856	0.114968	0.427041	-0.851795	0.448566	0.270616
0.015914	0.168072	0.672623	-0.879808	0.321996	-0.349653
-0.176639	0.310604	0.123808	-0.692921	-0.425546	0.582040
0.338613	0.079685	0.443198	-0.720602	0.210204	0.660717
-0.288478	0.301803	-0.179627	-0.539144	0.095847	-0.836742
-0.742471	0.052612	0.327409	-0.903467	-0.416291	0.102217
0.099052	0.003000	0.212586	-0.103141	-0.948016	0.301045
-0.287088	0.350235	0.748419	-0.890791	0.064604	0.449798
0.198266	0.400234	0.121548	-0.380142	0.662839	-0.645086
-0.055322	0.237163	0.265346	-0.116316	0.619198	0.776572
-0.106685	0.162705	0.067707	-0.491079	0.800434	-0.343724
-0.087271	0.007654	0.002397	0.211596	-0.032635	-0.976812
-0.388914	0.578499	0.389347	-0.551619	0.811047	-0.194731
0.444319	0.256970	0.710832	0.801097	0.225162	0.554569
-0.111776	0.053932	0.700477	0.897777	0.414473	0.149024
-0.049307	0.104111	0.016717	-0.325959	-0.766828	-0.552925
0.206824	0.004204	0.743136	0.626572	-0.774446	0.087412
-0.078103	0.440845	0.070617	-0.146084	0.876132	-0.459405
-0.647643	0.399500	0.413182	-0.840918	0.474731	0.259782
-0.133079	0.075467	0.895242	-0.627347	0.561570	0.539513
-0.167331	0.566912	-0.110281	-0.234761	0.112295	-0.965545
0.311851	0.158634	0.400628	-0.804225	-0.552593	0.218777
-0.488454	0.146130	0.334023	-0.137758	-0.908859	0.393698
-0.723180	0.196934	0.310085	-0.895098	0.261333	0.361254
0.020851	0.478044	-0.051258	0.503747	0.202910	-0.839682
-0.144813	0.206443	0.196361	-0.081800	0.001449	0.996648
0.166868	0.447651	0.467087	0.343462	0.932952	-0.107864
0.286806	0.086892	0.462680	0.469941	0.717343	-0.514367
-0.206049	0.211896	0.926396	-0.198642	0.302857	0.932105
0.076049	0.050144	0.449462	-0.904260	0.015425	0.426704
0.071210	0.194498	0.577047	0.901579	-0.298148	-0.313469
0.532129	0.093156	-0.053940	0.709601	-0.017685	-0.704382
-0.197988	0.100591	0.762659	0.828911	0.048485	0.557276
0.146592	0.549749	0.449039	-0.145432	0.742915	-0.653397
0.001255	0.064435	0.297367	0.129359	0.262237	0.956294
-0.119598	0.140106	0.194962	0.051973	-0.409718	0.910731
-0.289359	0.037641	0.119392	-0.618401	0.055022	-0.783934
0.369690	0.485687	0.032329	0.986207	0.133864	-0.097346
-0.200467	0.203790	0.581907	-0.377879	-0.683658	0.624355
-0.037547	0.681967	0.284604	-0.801291	0.564994	0.196761
-0.001606	0.101257	0.475672	0.626729	0.448968	-0.636898
-0.268456	0.040698	0.034595	-0.935422	-0.124179	0.331007
-0.077276	0.065234	-0.097971	0.093278	0.225621	-0.969739
0.068069	0.122883	0.162936	-0.361003	-0.338166	-0.869092
0.251579	0.080915	0.747397	0.624542	0.773233	0.109810
