-0.053297	0.369670	0.749154	-0.213608	0.973898	-0.076780
0.172687	0.434727	0.274656	0.041442	0.471430	-0.880929
0.144560	0.060176	0.242839	0.895589	0.005034	-0.444854
0.031791	0.241230	0.158054	0.152352	0.987574	0.038568
0.162333	0.035868	0.348695	0.067103	0.112586	0.991374
0.609918	0.199800	0.106167	0.716912	0.509607	0.475749
-0.079350	0.089080	0.849320	-0.249719	0.400884	0.881438
-0.116205	0.088346	0.712358	-0.666119	0.459937	0.587148
-0.004398	0.048175	0.697522	-0.234938	0.849422	0.472531
0.077728	0.171165	0.197600	0.352538	0.621882	0.699271
0.493673	0.248777	0.103637	0.549432	0.492461	0.674986
0.139322	0.206810	0.094137	0.549974	0.725937	-0.412969
0.169074	0.397689	0.176202	0.728860	0.571558	-0.376941
0.057393	0.062815	0.583436	-0.204849	0.005451	-0.978778
-0.230551	0.122300	0.138670	-0.835615	0.517236	-0.184969
0.031232	0.532688	0.410796	0.413424	0.907712	0.071685
-0.099516	0.071452	0.477863	-0.665377	0.613016	-0.426010
0.012281	0.706533	0.392779	-0.127895	0.920176	-0.370026
-0.317854	0.377667	0.039489	0.173921	0.749054	-0.639273
-0.490289	0.139626	0.118799	-0.784899	0.149263	-0.601376
-0.393660	0.276119	0.387272	-0.063411	0.526832	-0.847601
0.129690	0.131216	0.566977	0.571833	0.603761	-0.555410
-0.304295	0.367432	0.772947	0.058480	0.796108	0.602322
-0.080916	0.210397	0.073107	-0.477723	0.746616	-0.462974
-0.068027	0.063031	0.295820	-0.886383	0.197485	-0.418718
0.120134	0.284888	0.453485	0.379369	0.488461	-0.785802
-0.083249	0.251610	0.307288	-0.368493	0.927832	-0.057799
0.273402	0.356205	0.070408	-0.113964	0.765578	-0.633168
-0.089283	0.204206	0.710192	-0.408236	0.903417	0.131076
-0.132967	0.254602	0.944845	-0.213545	0.342934	0.914765
-0.353157	0.374179	0.025233	-0.354625	0.755928	0.550286
0.075089	0.159763	0.174670	-0.858686	0.512371	-0.011590
-0.098082	0.341918	0.620897	-0.006106	0.938597	0.344961
0.012000	0.125271	0.572002	0.087437	0.604858	0.791519
0.101420	0.211889	0.266490	-0.254345	0.517444	0.817044
0.052664	0.219400	0.048798	0.195104	0.886574	-0.419430
0.314415	0.432764	0.439464	0.110645	0.884981	-0.452290
-0.111414	0.064257	0.728259	-0.957950	0.278804	-0.067828
-0.219461	0.312049	0.488657	0.874288	0.476519	0.092467
0.175502	0.607904	0.625248	0.510637	0.830413	0.222854
0.159586	0.035088	0.855612	0.938802	0.134170	0.317252
0.318601	0.483322	0.745422	0.368034	0.590257	0.718434
-0.023196	0.277303	0.089768	0.142822	0.989046	0.037291
-0.371650	0.172067	0.509203	-0.076197	0.960747	-0.266758
-0.206761	0.379547	0.162835	-0.537680	0.828877	0.154479
-0.023975	0.205468	0.153108	-0.130309	0.783618	0.607422
0.386907	0.074030	0.568489	0.746831	0.240892	0.619851
0.174180	0.113874	0.436185	0.421846	0.419040	0.804022
0.254038	0.189500	0.498386	0.745143	0.403308	-0.531136
0.129551	0.128583	0.590102	0.617326	0.648914	-0.444768
0.336394	0.056955	0.845214	0.657155	0.098885	0.747241
-0.095679	0.031569	0.963743	-0.549520	0.079974	0.831644
0.435017	0.189208	0.154328	0.531866	0.707817	-0.464880
-0.113694	0.276815	0.310731	0.233210	0.797893	0.555860
-0.133874	0.455860	0.300942	-0.529238	0.453987	0.716800
-0.042854	0.259129	0.765276	-0.097976	0.740032	0.665397
-0.221832	0.178560	0.310659	-0.553178	0.698201	0.454432
0.084820	0.247994	0.426548	0.099205	0.639278	-0.762550
-0.311199	0.060757	0.511337	-0.195593	0.489569	-0.849744
-0.070919	0.244181	0.321485	-0.426148	0.788985	0.442606
-0.230175	0.508631	0.083312	-0.616180	0.432968	-0.657922
0.316631	0.342218	0.742447	0.657644	0.610718	0.441052
0.655352	0.250756	0.047834	0.722261	0.678059	-0.136288
-0.271269	0.041309	0.190557	-0.983695	0.133367	-0.120655
0.112515	0.502810	0.206506	0.155811	0.449873	0.879396
0.206114	0.109847	0.636568	0.914995	0.361415	0.179340
-0.282857	0.230163	0.525879	-0.511306	0.594715	-0.620387
-0.150620	0.681745	0.284926	-0.072663	0.755657	-0.650924
0.064215	0.043273	0.236562	0.487784	0.028627	0.872495
-0.209661	0.444504	0.280188	0.328014	0.897733	-0.294077
0.183075	0.549953	0.413611	0.023285	0.952929	-0.302297
-0.070082	0.155406	0.595284	-0.197875	0.486359	-0.851058
0.225678	0.352126	0.398788	-0.730260	0.558696	0.393166
0.008153	0.160336	0.178460	0.240486	0.928028	0.284482
-0.079191	0.135092	0.657062	0.693730	0.688892	-0.210158
-0.034050	0.155250	0.906021	-0.065029	0.009359	0.997839
-0.058128	0.256707	0.246994	0.308189	0.835546	0.454843
-0.221852	0.290105	0.163889	-0.669198	0.617537	-0.413308
-0.096531	0.170561	0.045834	-0.537513	0.842414	0.037655
-0.269200	0.623716	0.259887	-0.571247	0.782796	-0.246795
-0.238345	0.739334	0.215513	-0.074618	0.990027	-0.119490
-0.436506	0.266007	0.169600	-0.692801	0.082728	-0.716368
-0.009147	0.203338	0.483417	-0.072165	0.997211	-0.019022
-0.440791	0.189756	0.295391	0.083460	0.675303	-0.732803
-0.339819	0.039059	0.618473	-0.992023	0.065008	-0.107999
0.166180	0.242036	0.344526	0.515457	0.855648	0.046585
0.254954	0.004915	0.015533	0.988913	0.009571	-0.148186
-0.074570	0.193064	0.072832	-0.545668	0.794034	0.267875
-0.021084	0.084610	0.113387	0.581863	0.264577	0.769048
-0.067574	0.022592	0.607728	0.374551	0.805212	-0.459723
0.120453	0.041570	0.216615	0.643526	0.284085	0.710753
0.195891	0.111146	0.855469	0.827447	0.451960	0.333263
0.079675	0.131766	0.961049	0.074105	0.196840	0.977631
-0.139392	0.049063	0.204981	-0.573024	0.215940	0.790578
-0.049974	0.341712	0.283013	-0.503965	0.254311	0.825436
0.438679	0.225320	0.380589	0.392971	0.603652	-0.693670
0.051610	0.026972	0.611740	0.323125	0.494749	-0.806730
-0.142852	0.078096	0.625726	-0.717157	0.531758	0.450466
-0.113452	0.100474	0.512499	-0.586868	0.115113	-0.801458
0.111759	0.069928	0.475665	0.690378	0.266561	-0.672549
-0.363349	0.566123	0.433742	0.241926	0.913421	0.327314
0.132474	0.241453	0.307861	0.717964	0.690393	0.088795
0.092127	0.168239	0.138998	0.889535	0.307611	-0.337790
-0.078535	0.042117	0.216129	-0.939182	0.186624	-0.288287
-0.281261	0.303377	0.063770	-0.802462	0.468866	-0.369078
0.220104	0.006552	0.076981	0.993438	0.055301	-0.100110
-0.112419	0.006388	0.484499	-0.865606	0.256965	-0.429761
0.014687	0.122350	0.475289	-0.387903	0.033478	0.921092
0.105659	0.060204	0.292885	0.528540	0.267362	0.805706
0.045670	0.487020	0.255939	-0.286127	0.828087	-0.482082
0.048111	0.211462	0.465796	0.274041	0.752535	0.598826
0.192103	0.385348	0.755615	-0.521229	0.661780	0.538857
0.284845	0.004587	0.554159	0.603840	0.631654	-0.486200
0.012604	0.093595	0.016407	-0.279340	0.473809	-0.835149
-0.012944	0.583358	0.246539	-0.849959	0.202118	-0.486537
0.049427	0.141451	0.906916	0.261853	0.685767	0.679085
0.214010	0.654308	0.177250	0.418091	0.714011	0.561595
-0.312199	0.163326	0.418589	-0.719283	0.002175	-0.694714
-0.349920	0.413521	0.371725	-0.888162	0.384302	0.251952
-0.145340	0.133856	0.031568	-0.430847	0.309029	-0.847863
-0.095809	0.327801	0.466754	0.131326	0.935922	0.326807
-0.048130	0.348699	0.409170	-0.790523	0.522065	-0.320190
-0.121472	0.166111	0.235900	-0.796336	0.456890	-0.396358
0.158921	0.199938	0.122708	0.122305	0.613907	0.779846
0.087296	0.046678	0.612590	-0.010036	0.556070	-0.831075
0.099440	0.647042	0.589114	-0.316158	0.750932	0.579780
0.380869	0.192902	0.188825	0.612730	0.778263	0.137360
0.043174	0.245725	0.433250	-0.323274	0.636823	0.699965
-0.116448	0.263909	0.290077	-0.308948	0.728803	0.611062
0.072783	0.216515	0.256181	0.022936	0.922052	-0.386385
-0.487679	0.117592	0.324080	-0.974212	0.174295	-0.143291
-0.161660	0.209172	0.254950	-0.706012	0.698707	-0.115562
0.070918	0.367838	0.553865	0.845444	0.533718	-0.019242
0.220134	0.314783	0.808593	0.501049	0.838427	0.214455
0.096209	0.098656	0.647335	0.709753	0.538866	0.453734
0.024060	0.060254	0.669120	-0.118455	0.840145	-0.529269
-0.100208	0.108975	0.308446	-0.890284	0.180712	0.418016
0.237190	0.328454	0.547108	0.876625	0.318229	-0.360915
0.015875	0.043794	0.324468	0.151895	0.133685	0.979314
-0.047232	0.145202	0.682274	-0.759389	0.574435	0.305537
0.227441	0.118195	0.074216	0.524709	0.484505	0.699953
-0.369249	0.060072	0.782071	-0.918036	0.363943	0.157340
0.208468	0.075167	0.133439	0.199025	0.117362	0.972942
-0.137783	0.179365	0.051662	-0.564497	0.628895	-0.534635
-0.244254	0.400311	0.277531	-0.732981	0.649843	-0.201105
0.230211	0.096196	0.816177	0.710764	0.138511	0.689659
0.037777	0.022157	0.534490	0.823501	0.045089	-0.565521
0.119276	0.057525	0.401399	-0.334288	0.141730	-0.931753
-0.139995	0.131717	0.625919	-0.600417	0.211900	-0.771102
-0.053578	0.163118	0.227417	-0.177519	0.779465	0.600767
0.400627	0.066123	0.575522	0.700155	0.247524	-0.669713
-0.202525	0.720835	0.405168	-0.396488	0.896202	0.199046
0.200030	0.272906	0.631455	0.660636	0.695800	0.281820
-0.632805	0.181874	0.502731	-0.883850	0.449454	0.129614
-0.235393	0.084484	0.309075	-0.954253	0.133947	0.267320
-0.106661	0.139937	0.639830	0.767037	0.551302	-0.328207
-0.218128	0.510702	0.300558	0.361661	0.409816	-0.837408
0.290882	0.210510	0.415845	-0.489425	0.868579	-0.077679
-0.080449	0.246618	0.120369	-0.240495	0.846335	-0.475268
-0.245787	0.449573	0.396135	-0.746326	0.661749	-0.071313
0.049680	0.119733	0.282972	0.191321	0.389083	0.901116
0.011452	0.240534	0.015608	0.366260	0.431335	-0.824502
0.011953	0.135350	0.710938	0.039995	0.675211	0.736539
-0.124796	0.119655	0.309029	-0.437511	0.377888	0.815957
-0.049537	0.101324	0.583364	-0.214887	0.499768	-0.839080
0.313943	0.054013	0.712210	0.844980	0.143970	0.515054
0.051210	0.152573	0.178118	-0.181462	0.010145	-0.983346
-0.184224	0.214976	0.300237	-0.711687	0.095269	-0.696007
0.297715	0.368063	0.667891	0.909848	0.088530	0.405388
-0.419809	0.600308	0.050689	-0.430273	0.893503	-0.128521
-0.008383	0.166663	0.155419	0.052247	0.749777	0.659625
-0.312090	0.183219	0.497823	-0.793275	0.599447	0.106673
-0.498287	0.052404	0.566311	-0.041061	0.762930	0.645176
0.513692	0.532844	0.094353	0.550619	0.834720	-0.007850
0.179806	0.085311	0.187945	0.875895	0.419528	0.238337
-0.188072	0.122522	0.160361	-0.747583	0.595502	0.294102
0.029804	0.109399	0.795098	0.284718	0.950827	0.121916
0.153547	0.375483	0.824232	0.444800	0.824978	0.348660
0.343709	0.109325	0.598393	-0.134260	0.332462	0.933511
-0.238367	0.147186	0.880951	-0.514618	0.331122	0.790902
-0.284636	0.631379	0.584028	-0.396633	0.788786	0.469572
0.309552	0.269900	0.798612	0.447217	0.468591	0.761853
0.347393	0.052380	0.589318	0.978597	0.195216	-0.065111
0.108493	0.115193	0.702614	0.526469	0.560681	0.639114
-0.473485	0.055673	0.645934	0.217278	0.507069	0.834069
-0.057085	0.193035	0.639967	-0.140039	0.990019	-0.015828
-0.034162	0.150936	0.159823	-0.180111	0.805591	0.564432
0.171909	0.596262	0.403782	-0.032770	0.913535	0.405438
0.112638	0.161856	0.454889	0.647284	0.245397	0.721668
-0.280194	0.173362	0.744030	-0.204861	0.978720	0.011809
-0.180742	0.250629	0.322201	-0.472853	0.690620	0.547224
0.358666	0.101946	0.798961	0.081951	0.048899	0.995436
0.059703	0.469937	0.540793	-0.335088	0.735444	0.588929
0.505754	0.445718	0.394617	0.380558	0.669129	0.638313
-0.071582	0.033217	0.103985	0.811309	0.060792	-0.581449
-0.023452	0.047967	0.580132	0.794497	0.440206	-0.418323
0.375738	0.150593	0.419682	0.836408	0.214505	0.504390
0.322285	0.681647	0.122126	0.063332	0.981636	-0.179944
0.125994	0.526643	0.691064	0.400424	0.350545	0.846628
-0.019286	0.038065	0.556953	0.103178	0.560982	-0.821373
-0.714160	0.262283	0.406612	-0.949480	0.229478	0.214075
0.127447	0.516414	0.367653	0.031453	0.916922	-0.397825
0.060830	0.148946	0.009069	0.199567	0.744465	-0.637138
0.111136	0.704151	0.124689	0.553744	0.809161	-0.196535
0.444315	0.579985	0.417848	0.524246	0.846868	0.089331
-0.221423	0.134016	0.376238	-0.788931	0.402605	0.464216
0.042652	0.030650	0.653435	0.292011	0.399957	0.868772
0.161154	0.204191	0.506861	-0.056019	0.633862	0.771415
-0.107100	0.038146	0.822048	-0.585385	0.036412	0.809938
0.085147	0.060199	0.305048	0.715204	0.257644	0.649695
-0.112373	0.320075	0.619376	0.966024	0.258385	0.005826
0.184840	0.117851	0.317097	-0.008486	0.225478	0.974211
-0.016959	0.120704	0.416468	0.094029	0.661086	-0.744395
0.120683	0.133268	0.590512	0.351224	0.393017	-0.849812
0.746062	0.168355	0.165949	0.933933	0.300966	-0.192843
-0.451202	0.263705	0.117927	-0.927167	0.104087	-0.359899
0.062104	0.291026	0.329680	-0.006969	0.999289	0.037055
0.196486	0.031413	0.572911	0.104589	0.325574	-0.939714
-0.013660	0.182252	0.607281	0.006035	0.841332	0.540485
-0.386140	0.447604	0.217985	-0.258476	0.645684	-0.718527
-0.011107	0.265121	0.094872	-0.444977	0.842298	-0.304186
0.066114	0.712063	0.143985	0.254667	0.667937	-0.699289
0.001262	0.041741	0.941408	-0.232717	0.308373	0.922360
-0.042125	0.306562	0.086846	-0.749035	0.181802	0.637099
0.003521	0.013131	0.261799	0.005600	0.159697	0.987150
-0.006837	0.340203	0.413721	0.304022	0.723010	-0.620345
0.112350	0.072116	0.217881	0.864124	0.489107	0.118590
-0.033570	0.216642	0.678601	-0.285387	0.801455	0.525571
0.090381	0.058398	0.586582	0.441186	0.237860	0.865319
-0.375783	0.260656	0.631055	-0.746327	0.662310	-0.065894
-0.026730	0.077754	0.328886	-0.129498	0.367922	0.920795
-0.157567	0.118876	0.091169	-0.500425	0.372987	-0.781316
0.176832	0.202351	0.077672	0.494811	0.537036	-0.683194
-0.147896	0.188971	0.320267	0.362985	0.257207	0.895593
-0.055961	0.204760	0.228831	-0.200605	0.307049	0.930311
-0.393872	0.210009	0.596751	-0.760756	0.638605	-0.115908
0.166964	0.066719	0.686413	0.796156	0.290252	-0.530932
0.075214	0.108139	0.038085	0.116794	0.253733	-0.960197
-0.117857	0.277155	0.660329	-0.097545	0.987894	-0.120627
0.001306	0.084159	0.678778	-0.436448	0.449752	0.779254
-0.145805	0.138988	0.381717	-0.577002	0.228753	-0.784054
0.343928	0.026607	0.461403	0.588009	0.392100	-0.707462
-0.127178	0.182710	0.522320	-0.732280	0.466708	0.495934
-0.195108	0.036179	0.398349	0.912960	0.117494	0.390768
-0.088091	0.117642	0.293644	-0.213114	0.800231	0.560546
0.207708	0.328648	0.554617	0.909765	0.414457	-0.023518
-0.181366	0.035094	0.559595	-0.043048	0.239568	-0.969925
-0.039829	0.699479	0.235612	0.137215	0.988500	0.063558
-0.301322	0.158931	0.563464	-0.554297	0.746058	-0.368989
0.078970	0.557675	0.331368	0.686670	0.486610	0.540088
-0.068439	0.298416	0.153052	-0.171526	0.731845	-0.659531
-0.093447	0.181737	0.433140	-0.443372	0.894313	-0.060207
-0.054814	0.511186	0.613256	-0.733046	0.220509	0.643443
0.128395	0.084733	0.745532	0.644219	0.416369	0.641576
0.442907	0.109893	0.734913	0.798585	0.517186	0.307865
-0.159133	0.459494	0.614719	0.567652	0.818961	-0.084108
0.051256	0.042845	0.726729	0.983343	0.156414	0.092580
-0.239955	0.209738	0.385722	-0.138998	0.384221	-0.912718
0.403678	0.111163	0.649099	0.936680	0.286033	0.202027
-0.182587	0.102403	0.048366	-0.162406	0.427545	-0.889286
0.011560	0.036615	0.780945	-0.152757	0.389784	0.908149
-0.249878	0.303297	0.251582	-0.036424	0.961251	0.273258
-0.151169	0.093810	0.254685	-0.637052	0.566195	0.523056
0.139188	0.365649	0.441056	-0.289117	0.865983	-0.408025
-0.452348	0.610124	0.106061	-0.677911	0.712349	-0.181647
0.201739	0.237658	0.925144	0.253746	0.053632	0.965783
0.022805	0.101070	0.985037	0.079075	0.325346	0.942283
-0.336590	0.426860	0.146920	0.664001	0.738322	0.118251
0.048216	0.391323	0.493840	0.072975	0.932960	0.352505
0.126065	0.212391	0.736729	0.410186	0.726241	0.551653
0.546296	0.252028	0.059105	0.334632	0.184748	-0.924061
0.053828	0.489508	0.061277	0.607286	0.427990	-0.669349
-0.126486	0.176374	0.376946	-0.744697	0.533097	0.401539
-0.111661	0.017486	0.206041	-0.909677	0.080068	-0.407525
-0.289840	0.367321	0.567264	0.005179	0.273206	0.961942
-0.017027	0.053245	0.516447	-0.345556	0.391134	-0.852998
0.353560	0.478141	0.304750	0.911882	0.124720	-0.391044
-0.138717	0.053007	0.278671	-0.577362	0.228002	0.784008
-0.078149	0.378562	0.596211	0.855542	0.099677	0.508048
-0.227597	0.300594	0.386121	0.838405	0.252370	-0.483101
-0.090784	0.307801	0.496145	-0.170983	0.816269	-0.551787
-0.101384	0.129309	0.638008	-0.921758	0.282386	0.265746
0.198450	0.186203	0.666152	0.287356	0.869454	-0.401841
0.224108	0.353342	0.567027	-0.461494	0.853045	0.243592
0.039457	0.111717	0.862992	-0.147239	0.419351	0.895804
-0.750878	0.031012	0.374597	-0.988271	0.093519	0.120722
0.006823	0.459361	0.240658	-0.164974	0.439707	0.882860
-0.072724	0.178029	0.649137	-0.876284	0.449439	-0.173582
-0.049909	0.187113	0.008112	-0.501227	0.727077	-0.469181
0.721017	0.156081	0.063146	0.896569	0.226912	-0.380362
0.271418	0.676750	0.386763	0.734420	0.661831	0.150357
-0.303318	0.592239	0.004530	-0.517317	0.356232	-0.778127
-0.116004	0.270484	0.265791	-0.425791	0.868318	0.254412
0.196252	0.168021	0.389619	0.759899	0.533034	0.372059
0.286011	0.008931	0.276485	0.479788	0.025691	0.877008
0.133651	0.335128	0.504134	0.800510	0.516142	-0.304598
0.152399	0.439965	0.519113	0.489987	0.864509	0.111967
0.297919	0.374131	0.132219	0.083768	0.972866	-0.215672
-0.050594	0.252344	0.148129	0.239100	0.734168	0.635475
-0.433951	0.016125	0.845634	-0.624883	0.070671	0.777513
-0.229535	0.271880	0.576039	0.716927	0.673378	0.180495
0.129162	0.009788	0.240083	0.994662	0.028935	-0.099051
-0.052616	0.119265	0.227820	-0.505554	0.736557	0.449332
0.141745	0.244162	0.510052	0.392284	0.035466	-0.919160
0.060508	0.052762	0.748016	0.117455	0.697209	0.707181
-0.170062	0.227210	0.628976	0.759290	0.566726	0.319845
0.300682	0.613660	0.482270	-0.009075	0.675019	0.737745
0.614847	0.236900	0.413863	0.551303	0.733930	-0.396752
0.123453	0.417052	0.059084	0.632546	0.454276	-0.627311
0.219645	0.079010	0.732788	0.336297	0.009154	0.941711
-0.031451	0.686135	0.214519	-0.120089	0.923191	-0.365099
0.110597	0.611979	0.149442	0.881908	0.447549	-0.148114
0.049592	0.162018	0.147537	0.494381	0.868784	0.028316
0.021956	0.153209	0.825758	0.258004	0.618872	0.741911
0.119697	0.573885	0.232983	-0.474951	0.406241	-0.780634
0.035647	0.428736	0.406323	0.285099	0.611743	-0.737895
0.212119	0.079953	0.047338	0.832277	0.281392	-0.477632
-0.289095	0.256923	0.324717	-0.732750	0.656256	-0.180013
-0.032642	0.157759	0.169924	-0.143373	0.794952	0.589488
-0.080017	0.226634	0.319714	0.009370	0.964918	-0.262386
0.003011	0.195729	0.323219	-0.295410	0.788101	0.540028
0.027645	0.236487	0.320300	0.582031	0.623232	0.522323
0.101216	0.243661	0.163486	-0.193275	0.981085	-0.010777
0.011298	0.370157	0.847833	0.026718	0.720072	0.693384
0.006494	0.218565	0.571922	0.136495	0.937586	0.319845
-0.016350	0.252769	0.810681	-0.730426	0.546025	0.410286
0.406254	0.536922	0.009198	0.489838	0.566011	-0.663091
-0.121709	0.321145	0.804237	-0.340904	0.442543	0.829421
0.075801	0.083754	0.693081	0.601922	0.697655	0.388545
-0.010380	0.241264	0.475259	-0.225330	0.730082	0.645141
-0.149348	0.072776	0.242050	-0.725828	0.358004	0.587372
0.112689	0.089858	0.407211	0.178501	0.003257	0.983934
-0.016169	0.132433	0.239859	-0.894565	0.385965	-0.225353
0.291933	0.383223	0.231716	0.818038	0.574500	0.027633
0.027127	0.330924	0.610573	0.188352	0.651573	-0.734831
0.129916	0.305330	0.475270	0.009044	0.133883	-0.990956
-0.376842	0.063323	0.689171	-0.933573	0.233052	-0.272266
0.417695	0.398964	0.268141	-0.509478	0.823538	-0.249434
-0.206240	0.401706	0.514404	-0.114009	0.922018	-0.369980
0.566780	0.184368	0.068141	0.841481	0.436877	0.317880
-0.221376	0.191889	0.143581	0.167183	0.519921	0.837695
0.390043	0.183131	0.654004	0.606654	0.449896	0.655412
0.050386	0.131830	0.180611	0.559980	0.442194	0.700633
-0.386506	0.414076	0.721719	-0.526501	0.776972	0.345125
-0.185211	0.399733	0.299058	-0.929283	0.076238	0.361415
-0.120898	0.171449	0.437468	0.000293	0.158349	0.987383
-0.442784	0.583974	0.081114	-0.169546	0.887876	-0.427704
0.039066	0.607899	0.404410	0.313747	0.708740	0.631862
0.207448	0.383085	0.355392	-0.492005	0.168302	0.854170
0.221387	0.114267	0.255718	0.718284	0.222246	-0.659299
-0.457478	0.402258	0.151840	0.068294	0.895651	0.439483
0.149397	0.115272	0.023910	0.326569	0.354413	-0.876210
-0.329349	0.064888	0.273433	-0.963302	0.159534	-0.215864
-0.013324	0.166761	0.095215	-0.436489	0.740494	-0.511024
0.167448	0.393876	0.424628	0.138130	0.953803	0.266795
0.175054	0.055632	0.645173	0.375121	0.197970	0.905589
-0.068255	0.517621	0.139184	-0.354940	0.357682	-0.863760
0.174453	0.106451	0.457903	0.847034	0.442484	0.294517
-0.063769	0.221541	0.307586	0.417822	0.839025	-0.348512
-0.479770	0.386569	0.632400	-0.454250	0.487358	0.745747
-0.139213	0.109924	0.178652	-0.656013	0.069266	0.751565
-0.149973	0.167218	0.211955	-0.736649	0.587565	0.334836
0.161249	0.092042	0.414855	0.720272	0.577858	-0.383782
-0.069892	0.051565	0.323724	-0.304722	0.220804	0.926494
0.192218	0.313452	0.592783	-0.187528	0.938831	0.288841
0.219684	0.217896	0.337781	0.427135	0.012658	0.904099
-0.594500	0.128103	0.234410	-0.852854	0.498381	0.155743
-0.097445	0.054596	0.699806	-0.427789	0.585583	0.688541
0.167109	0.647641	0.333111	0.786311	0.595796	-0.163531
-0.079353	0.694964	0.378439	0.133116	0.920547	0.367250
-0.413409	0.262323	0.297010	0.695310	0.706298	-0.132996
0.356599	0.300631	0.336618	0.306435	0.831373	-0.463591
-0.384339	0.343986	0.255063	0.488915	0.827458	0.276179
0.047462	0.148983	0.370333	-0.831212	0.476798	-0.285920
0.006126	0.044201	0.854684	0.080456	0.322645	0.943094
-0.148789	0.047456	0.673849	-0.740922	0.645422	0.185648
0.204532	0.261216	0.904617	0.597558	0.333112	0.729357
-0.421184	0.210364	0.068546	-0.436196	0.891479	-0.122470
0.220707	0.394879	0.464869	-0.181321	0.590314	-0.786544
-0.327316	0.316797	0.244792	-0.591734	0.452303	-0.667288
0.337624	0.570620	0.172871	0.556077	0.718897	-0.417091
-0.447125	0.373702	0.344026	-0.599252	0.799872	-0.033173
0.174435	0.041563	0.773546	0.923568	0.219993	0.314045
-0.653842	0.196674	0.290681	-0.443396	0.829094	0.340593
0.142457	0.240497	0.582654	0.484035	0.531590	0.695070
-0.172895	0.095436	0.705921	-0.844803	0.533676	0.038711
-0.167491	0.081399	0.273075	-0.720863	0.220893	-0.656935
-0.039278	0.402277	0.190532	0.451226	0.394593	0.800432
-0.198509	0.392967	0.508080	-0.217551	0.815036	-0.537018
-0.388653	0.190277	0.232513	-0.911136	0.070975	-0.405949
-0.139881	0.397419	0.206679	-0.467697	0.817308	0.336553
0.332851	0.008586	0.454000	-0.258716	0.171002	-0.950697
-0.183751	0.150245	0.061856	-0.492034	0.684315	-0.538159
0.043634	0.211057	0.000335	0.874931	0.224182	-0.429230
-0.060212	0.581114	0.233214	-0.879463	0.381691	-0.284354
-0.204965	0.008551	0.945421	-0.539197	0.019509	0.841954
-0.477234	0.294938	0.133863	-0.267480	0.941833	-0.203481
-0.742752	0.007777	0.445620	-0.920712	0.064779	0.384829
0.092818	0.138840	0.213789	0.377429	0.850423	0.366508
0.226663	0.062117	0.474333	-0.822675	0.021812	-0.568093
0.445017	0.160757	0.098252	0.592236	0.341468	-0.729833
-0.097790	0.532729	0.025456	-0.006525	0.996862	0.078889
0.088025	0.190051	0.123556	0.523437	0.813852	0.252308
-0.182793	0.069222	0.414905	-0.972846	0.219164	0.074415
-0.276559	0.201514	0.721174	-0.708128	0.704347	0.049507
0.099879	0.040651	0.729872	-0.584022	0.810944	-0.035898
0.009819	0.126692	0.458800	0.617281	0.563018	-0.549522
0.017860	0.390365	0.075899	0.136794	0.699145	-0.701772
0.151495	0.479550	0.366926	0.690097	0.535817	-0.486483
0.185251	0.027921	0.972050	0.348619	0.088312	0.933095
0.118681	0.178138	0.754305	0.407925	0.602800	0.685733
-0.001451	0.239781	0.273276	0.601739	0.721756	-0.342022
0.390075	0.589990	0.408394	0.653219	0.678632	-0.335802
0.101350	0.001816	0.517214	-0.549300	0.697621	-0.459994
0.211586	0.214648	0.322805	-0.086586	0.995109	0.047550
0.150767	0.293381	0.391764	0.960536	0.138536	-0.241200
0.315273	0.165613	0.752162	0.744613	0.221539	0.629660
-0.133271	0.044689	0.239764	-0.602426	0.206634	0.770964
-0.017279	0.463667	0.345481	-0.025046	0.985200	-0.169572
0.356968	0.238829	0.283673	0.284267	0.294172	-0.912499
0.013476	0.067344	0.617341	-0.934283	0.316411	-0.164313
0.302880	0.120918	0.573924	0.628708	0.278244	-0.726159
-0.005498	0.236096	0.041724	0.433112	0.494904	-0.753315
0.117490	0.014953	0.746616	0.560591	0.784987	0.263692
-0.310976	0.108699	0.716806	-0.354762	0.934797	-0.017256
0.308311	0.526603	0.197360	0.071070	0.693553	0.716892
-0.103226	0.160857	0.783223	-0.358540	0.559232	0.747468
0.044067	0.138747	0.773099	0.087853	0.924758	0.370277
-0.062597	0.194802	0.139765	-0.322055	0.937122	0.134470
-0.099432	0.085586	0.803508	-0.319186	0.713207	0.624064
0.313673	0.099263	0.202854	-0.085346	0.479594	0.873330
0.163117	0.015587	0.436793	0.836735	0.139005	-0.529672
0.063448	0.236446	0.181873	-0.599616	0.782040	0.169922
0.319168	0.345533	0.015136	0.648485	0.201456	-0.734086
0.076762	0.128584	0.683188	-0.360254	0.366672	0.857770
-0.080538	0.095467	0.281764	-0.287345	0.388023	0.875712
-0.256866	0.218470	0.644014	-0.869932	0.070042	-0.488173
0.184019	0.211299	0.226572	0.599182	0.797983	-0.064841
0.385693	0.270463	0.741911	0.622298	0.753647	0.211567
0.189470	0.156683	0.353406	-0.687565	0.535537	0.490361
-0.079897	0.505341	0.330118	-0.107361	0.982488	-0.152287
-0.003621	0.231994	0.613492	-0.285395	0.958406	0.002680
0.135402	0.336936	0.284447	0.603891	0.543033	-0.583464
-0.108586	0.369824	0.868951	-0.164186	0.441075	0.882324
0.301515	0.163808	0.521344	-0.774758	0.630170	-0.051334
0.058726	0.193191	0.188969	0.491195	0.435845	0.754166
-0.183062	0.091490	0.031767	-0.981271	0.046388	-0.186962
0.201627	0.191955	0.667899	0.563304	0.756067	-0.333245
0.406013	0.375734	0.680554	0.615151	0.649536	0.446870
-0.142643	0.306215	0.202705	0.259549	0.689916	0.675759
-0.019514	0.024889	0.721632	-0.534610	0.160786	0.829662
-0.011857	0.160212	0.650356	-0.471758	0.674257	0.568175
-0.028102	0.193208	0.366094	-0.158146	0.498592	-0.852289
0.391607	0.269634	0.523642	0.017471	0.359671	0.932916
0.095039	0.181727	0.106799	0.448966	0.890945	0.068160
-0.288034	0.280095	0.409736	0.223951	0.871477	0.436319
0.085507	0.139253	0.287505	0.755001	0.590800	0.284479
0.048371	0.159882	0.143786	0.246885	0.774050	0.583005
-0.092178	0.230874	0.369832	-0.258780	0.950754	0.170589
-0.279843	0.277739	0.011395	0.599925	0.370895	-0.708892
-0.194717	0.109397	0.614698	-0.856448	0.206722	0.473035
0.588897	0.184789	0.150159	0.789586	0.612843	-0.031256
0.015339	0.232489	0.420995	0.518977	0.818367	-0.246858
-0.172875	0.063285	0.048223	-0.881598	0.274586	-0.383911
0.080560	0.115877	0.197390	-0.189751	0.440587	-0.877427
0.143957	0.099403	0.518853	-0.631969	0.464603	-0.620290
0.076787	0.050464	0.710532	0.687142	0.431095	0.584801
-0.150247	0.105505	0.817719	-0.953442	0.170097	0.249028
-0.356609	0.355038	0.323779	0.571247	0.687255	0.448729
0.114754	0.609289	0.539116	0.467929	0.862418	0.193075
0.064678	0.523129	0.329371	0.574002	0.555518	-0.601600
-0.227245	0.242146	0.541601	-0.968356	0.007347	-0.249465
0.025459	0.375267	0.465538	-0.343711	0.661573	0.666472
-0.070914	0.195983	0.411297	-0.915646	0.400603	0.033320
0.124895	0.117242	0.948321	0.446426	0.474197	0.758842
0.231306	0.088988	0.571173	0.931121	0.357491	0.072209
-0.270542	0.043913	0.692184	-0.533987	0.291162	0.793777
0.102248	0.260343	0.571593	0.393061	0.226425	-0.891198
0.378299	0.187639	0.799718	0.274537	0.321991	0.906064
-0.343108	0.300230	0.219759	-0.804824	0.332054	-0.491934
0.348545	0.266105	0.232336	0.603247	0.662123	0.444619
0.622661	0.251172	0.175690	0.846576	0.339175	-0.410206
-0.017285	0.469693	0.662518	0.159294	0.918539	0.361818
0.147802	0.560880	0.424470	-0.101822	0.083078	0.991328
-0.001266	0.265483	0.245913	-0.067563	0.018144	0.997550
0.163720	0.061507	0.355181	0.475532	0.199111	0.856869
0.303344	0.481393	0.576679	0.538761	0.839360	0.072191
0.207002	0.165171	0.272755	0.836017	0.300662	-0.458996
0.316566	0.514091	0.288525	0.685257	0.222468	0.693491
0.126074	0.247508	0.198313	0.460334	0.880176	-0.115685
0.128424	0.259076	0.212868	0.456758	0.876561	-0.151701
-0.446148	0.018177	0.756716	-0.294062	0.505033	0.811461
0.107618	0.075998	0.202480	0.916371	0.302804	-0.261867
0.368885	0.243951	0.128476	-0.715971	0.610885	-0.337941
-0.118086	0.106488	0.189930	-0.529419	0.848284	0.011427
0.313110	0.502831	0.597777	0.944375	0.312083	0.103735
-0.214463	0.059512	0.039974	-0.603678	0.053748	-0.795415
0.063531	0.359067	0.404009	-0.046781	0.995181	-0.086175
-0.122180	0.342963	0.608325	0.035782	0.223464	0.974055
0.662356	0.259030	0.271204	0.995074	0.054422	0.082861
0.579636	0.493332	0.128826	0.604478	0.658732	-0.447971
-0.173608	0.124164	0.086197	-0.760631	0.608531	-0.226119
0.664006	0.340541	0.232778	0.879378	0.407479	-0.246282
0.216666	0.088871	0.230088	-0.980634	0.116195	0.157654
-0.006103	0.323818	0.760127	0.033846	0.771506	0.635321
-0.694664	0.144586	0.040556	-0.605523	0.634300	-0.480631
-0.341682	0.329048	0.409157	-0.047402	0.941762	-0.332922
0.233173	0.607127	0.356744	-0.125741	0.856821	-0.500048
-0.160188	0.264981	0.351914	-0.471635	0.880486	-0.048007
-0.016135	0.179131	0.143574	0.028156	0.995873	0.086274
-0.049917	0.150469	0.892444	0.679339	0.230045	0.696834
-0.434385	0.528943	0.504507	-0.638685	0.756928	0.138349
-0.091879	0.290707	0.154517	-0.832477	0.539693	0.125354
0.272407	0.119653	0.279312	0.983796	0.046724	0.173099
-0.093983	0.119872	0.607412	-0.328185	0.510982	-0.794476
0.022394	0.374013	0.296454	0.254381	0.946980	-0.196264
-0.109931	0.170211	0.521657	0.517728	0.521637	-0.678125
-0.158967	0.204466	0.252093	-0.271030	0.797453	0.539084
-0.185580	0.455723	0.506190	-0.544861	0.503358	0.670639
-0.038541	0.360317	0.197045	0.149914	0.484741	-0.861715
-0.313033	0.239210	0.711025	-0.661357	0.560022	0.498981
-0.490686	0.258230	0.618692	-0.739216	0.173938	0.650619
0.126836	0.125808	0.252991	0.589207	0.277037	0.759003
-0.004876	0.477942	0.421290	-0.023542	0.709233	-0.704580
0.194041	0.010030	0.064760	0.909074	0.146329	-0.390092
0.100647	0.191025	0.089767	0.294130	0.936914	-0.188891
0.103403	0.598066	0.462013	0.574624	0.818075	-0.023649
0.027480	0.394517	0.363559	0.076646	0.992107	0.099239
0.080726	0.184344	0.324177	-0.274931	0.762436	-0.585752
-0.139734	0.210392	0.121233	0.661998	0.729362	-0.172596
0.477050	0.247030	0.129164	-0.132222	0.183264	-0.974131
0.324254	0.362257	0.523089	0.640103	0.607271	-0.470627
-0.500077	0.432156	0.350725	-0.874515	0.473191	0.106365
-0.321995	0.598563	0.474156	-0.809196	0.293546	0.508953
0.368682	0.264509	0.813340	0.147384	0.697446	0.701318
0.142245	0.161848	0.142694	0.583160	0.761876	0.281902
-0.064182	0.239644	0.109751	0.413835	0.909215	-0.045482
-0.283058	0.640661	0.323446	-0.692537	0.607856	-0.388464
-0.336400	0.471532	0.373824	-0.876320	0.250149	-0.411689
-0.143368	0.133370	0.169113	-0.732928	0.596280	0.327516
0.031405	0.154841	0.162562	0.029990	0.985980	0.164145
0.296282	0.543513	0.357986	-0.458031	0.629931	0.627212
-0.269999	0.313830	0.102465	0.623332	0.402152	0.670620
-0.047161	0.100020	0.296016	-0.332895	0.576864	0.745928
-0.279035	0.084345	0.535666	0.207496	0.887992	-0.410386
0.246703	0.081594	0.772457	0.842867	0.189279	0.503734
0.167131	0.216975	0.090501	0.489329	0.680142	-0.545861
-0.017961	0.289545	0.799056	-0.099946	0.814595	0.571355
0.295369	0.283782	0.188086	0.753823	0.456255	-0.472845
-0.116823	0.064340	0.110586	-0.981038	0.114416	-0.156441
0.495786	0.484653	0.068057	0.729854	0.683181	-0.024036
0.305439	0.417632	0.526696	-0.555499	0.216568	0.802819
0.320947	0.047421	0.633398	0.504423	0.793088	0.341421
0.190407	0.082613	0.187305	0.883094	0.323007	0.340309
0.256544	0.120335	0.510317	0.874486	0.472124	0.111235
0.050366	0.223055	0.063711	-0.945239	0.256735	-0.201518
0.054573	0.011258	0.439350	0.929633	0.016224	-0.368129
0.274889	0.595887	0.292128	0.719261	0.610010	-0.332492
-0.092186	0.125478	0.727853	-0.290090	0.909501	-0.297751
0.135322	0.165864	0.288970	0.556341	0.566460	0.607953
0.168042	0.077009	0.324536	0.496178	0.244988	0.832939
-0.279487	0.562391	0.571057	0.076606	0.451031	0.889215
-0.176661	0.073866	0.040873	-0.821492	0.314431	-0.475694
-0.087201	0.075514	0.088627	-0.272183	0.093304	-0.957711
-0.333609	0.218879	0.837809	-0.299401	0.128123	0.945486
0.075299	0.291113	0.132002	-0.036123	0.481165	-0.875886
0.604986	0.051650	0.161459	0.347941	0.131265	-0.928282
-0.253165	0.113822	0.653395	-0.670560	0.704951	0.231069
0.530022	0.478647	0.446874	0.606074	0.779346	-0.159039
-0.060852	0.128790	0.553105	-0.075190	0.578185	0.812434
0.254984	0.070147	0.192373	0.911877	0.409774	-0.023774
0.228513	0.299988	0.249240	0.505823	0.857916	0.090134
0.586858	0.204761	0.675557	0.590432	0.285847	0.754772
-0.043545	0.069711	0.342215	0.130453	0.019400	0.991265
-0.657496	0.270125	0.459888	-0.917477	0.375779	0.130482
0.342556	0.366083	0.797277	0.302174	0.677376	0.670711
0.134432	0.139516	0.017967	0.470824	0.647258	-0.599485
-0.058309	0.127957	0.650559	-0.187518	0.631189	0.752620
0.171970	0.306329	0.740285	0.735752	0.676845	-0.023420
0.100583	0.410162	0.145785	-0.987158	0.053150	-0.150646
0.034991	0.203898	0.150146	0.380079	0.924087	0.040041
-0.464980	0.201997	0.671425	-0.411727	0.858152	0.306686
0.060749	0.464309	0.234545	-0.597251	0.613601	0.516512
-0.095283	0.225890	0.201974	-0.588552	0.752819	-0.294737
-0.094940	0.314444	0.270080	0.707402	0.516693	0.482296
-0.071378	0.207167	0.671925	-0.014268	0.915233	-0.402671
-0.054726	0.281647	0.945136	-0.016057	0.337387	0.941229
-0.037795	0.140900	0.356229	-0.024247	0.331013	0.943315
0.253447	0.248896	0.894148	0.349532	0.379659	0.856555
-0.254712	0.534680	0.677251	-0.380494	0.750353	0.540551
0.563019	0.200921	0.477238	0.966881	0.255123	0.007270
-0.146481	0.259400	0.053016	-0.636850	0.751019	-0.174337
0.059337	0.195521	0.182996	0.070017	0.919565	0.386651
-0.212734	0.083656	0.558201	-0.941959	0.321605	0.096349
-0.062587	0.051383	0.083805	-0.818618	0.217645	-0.531502
0.139295	0.256437	0.266691	0.436671	0.868221	0.235607
-0.234101	0.093429	0.379008	-0.861090	0.269008	0.431461
0.054392	0.130754	0.283801	0.225329	0.366179	-0.902851
-0.168889	0.348523	0.629184	-0.695009	0.641862	0.324001
-0.356982	0.038166	0.239529	0.904390	0.033157	0.425416
0.204045	0.254745	0.823849	-0.214396	0.766166	0.605826
0.710529	0.206673	0.210663	0.964383	0.132486	-0.228940
0.241289	0.145773	0.094797	-0.615025	0.695950	0.370672
-0.150867	0.240286	0.116380	-0.696344	0.532575	-0.481111
-0.177674	0.144537	0.350492	-0.491319	0.428202	0.758451
0.011166	0.068924	0.876120	0.015866	0.294904	0.955395
-0.084129	0.147377	0.815552	0.126530	0.024922	0.991650
0.007925	0.211172	0.498630	0.051493	0.948040	0.313957
-0.215620	0.517754	0.276885	0.503360	0.579672	0.640788
-0.145413	0.156156	0.637542	-0.620037	0.745177	0.245492
0.337734	0.197962	0.306789	-0.368620	0.875194	-0.313295
0.072806	0.123750	0.346130	0.217046	0.245558	0.944771
0.115739	0.080189	0.252545	0.692425	0.509007	0.511332
-0.093293	0.232911	0.463619	-0.465108	0.814175	0.347553
-0.313448	0.180687	0.885856	-0.514477	0.397025	0.760056
0.130248	0.331096	0.361226	-0.725988	0.273024	-0.631189
-0.328053	0.120729	0.511189	-0.923792	0.336662	0.182393
-0.187576	0.366708	0.362890	-0.340113	0.940272	-0.014531
0.045814	0.470267	0.748649	-0.520657	0.349419	0.778988
-0.186876	0.137152	0.450679	-0.200811	0.778837	-0.594212
0.383493	0.409482	0.238811	0.513596	0.658021	0.550661
-0.036115	0.227162	0.770757	-0.111863	0.809622	0.576193
-0.222144	0.130212	0.724253	-0.997341	0.072742	-0.004353
0.125719	0.097806	0.902221	0.039785	0.141578	0.989127
-0.005826	0.674099	0.319647	0.216927	0.931646	-0.291512
0.179129	0.129755	0.236288	0.381879	0.030182	0.923719
0.049678	0.332487	0.514140	-0.535489	0.836850	-0.113725
0.483258	0.195760	0.006479	0.793942	0.115200	-0.596980
-0.076448	0.240528	0.756863	-0.017434	0.932427	0.360937
-0.093147	0.511459	0.189263	-0.212892	0.976665	-0.028316
-0.278295	0.211584	0.527603	-0.820274	0.550217	0.156245
-0.666843	0.151185	0.478789	-0.934421	0.258740	-0.244768
-0.192980	0.106567	0.605045	0.871717	0.406351	-0.273839
-0.480691	0.500614	0.434884	-0.651033	0.696633	0.301427
0.240620	0.458618	0.085501	0.942849	0.155160	-0.294891
0.038836	0.410555	0.574386	0.308463	0.762558	0.568643
-0.382770	0.247924	0.570857	-0.206543	0.948042	-0.241984
0.052953	0.526003	0.604057	0.065771	0.959739	0.273085
-0.002928	0.246247	0.091124	-0.009443	0.870060	-0.492855
0.054602	0.711024	0.312117	-0.557391	0.830230	-0.005749
-0.038357	0.275128	0.452337	0.090977	0.205316	-0.974458
0.065781	0.276103	0.099236	0.475404	0.874052	0.100121
-0.041694	0.692074	0.019991	-0.512697	0.750155	-0.417624
-0.040705	0.522154	0.260872	-0.228851	0.840491	-0.491124
-0.349158	0.069108	0.263656	-0.943895	0.186161	-0.272776
0.159300	0.205236	0.467670	0.495261	0.692883	0.524051
-0.467549	0.335454	0.239427	-0.199571	0.947964	0.248065
0.202433	0.053458	0.519947	0.993354	0.104592	-0.048040
0.133132	0.217681	0.132617	0.587644	0.394168	0.706616
0.034702	0.032061	0.334371	0.190074	0.060979	0.979874
-0.118220	0.410122	0.519041	-0.611161	0.612868	-0.500873
-0.358096	0.551517	0.044971	-0.064300	0.996872	0.045950
-0.016442	0.273922	0.333979	-0.045984	0.989897	0.134121
0.485234	0.419849	0.243857	0.465966	0.638539	-0.612490
-0.060558	0.316791	0.011413	0.104410	0.992772	-0.059185
-0.035498	0.127067	0.266620	-0.159030	0.569646	0.806358
-0.093437	0.353702	0.420463	-0.274327	0.379028	0.883788
0.000110	0.401748	0.552190	0.005560	0.999918	-0.011566
-0.494267	0.220498	0.358539	-0.630875	0.387931	-0.671942
0.337093	0.340158	0.689425	0.756899	0.601166	0.256328
-0.189484	0.181234	0.346752	-0.650222	0.548962	-0.525217
0.424723	0.210254	0.132565	0.827715	0.369735	-0.422118
0.434770	0.513771	0.471577	0.241705	0.964407	-0.107230
0.122476	0.104193	0.751662	0.663137	0.720577	-0.202530
0.028030	0.308501	0.863499	0.462268	0.404219	0.789250
-0.081299	0.035822	0.738776	-0.415142	0.339054	0.844215
-0.201388	0.096474	0.871546	-0.727734	0.153136	0.668545
-0.393881	0.339499	0.381752	-0.778050	0.529414	-0.338170
0.033584	0.241393	0.808482	0.123882	0.929683	0.346905
0.239090	0.419702	0.488796	-0.448174	0.649809	0.613913
-0.188769	0.079925	0.868297	-0.702194	0.277907	0.655508
-0.083833	0.503777	0.347630	-0.189655	0.968718	-0.160049
-0.042628	0.115439	0.116095	0.530551	0.317358	-0.786002
-0.335208	0.504141	0.240738	-0.069431	0.975181	-0.210242
-0.111879	0.110181	0.148257	-0.824617	0.384448	0.414978
0.085286	0.135822	0.774113	0.326541	0.545514	0.771872
-0.119159	0.242757	0.102041	0.286286	0.951760	-0.110425
0.216114	0.514643	0.452004	0.753171	0.330477	-0.568786
-0.002176	0.310932	0.483752	0.238184	0.878326	0.414502
0.188925	0.118668	0.265068	0.572563	0.045143	0.818617
0.016773	0.213678	0.498323	0.009568	0.669992	0.742307
0.225695	0.163218	0.036084	0.459532	0.521385	-0.719018
0.048821	0.316955	0.166603	0.061746	0.766742	-0.638979
-0.384700	0.101635	0.236570	-0.868089	0.065605	-0.492054
-0.080496	0.085145	0.328371	-0.824414	0.156635	0.543881
-0.624093	0.307276	0.311044	-0.683708	0.723256	-0.097176
0.246016	0.651299	0.383750	0.341186	0.935749	0.089251
0.292142	0.561024	0.572383	0.793493	0.607710	0.032525
-0.059099	0.046541	0.136353	0.944713	0.057924	0.322743
0.142295	0.088072	0.123686	0.648292	0.333100	0.684662
0.137538	0.194345	0.301812	0.730007	0.608617	0.310926
0.026526	0.515495	0.599156	0.450444	0.765087	0.460154
-0.011457	0.075849	0.574776	-0.991925	0.116234	0.050733
-0.375675	0.320775	0.763189	-0.502777	0.792212	0.345854
0.047712	0.199134	0.085900	-0.088028	0.754333	-0.650564
-0.536217	0.230156	0.241823	-0.830332	0.495290	-0.255413
-0.137127	0.289704	0.141953	-0.476563	0.367536	-0.798626
0.085467	0.263767	0.533474	0.224451	0.129524	-0.965839
-0.282560	0.094991	0.182960	-0.886842	0.289026	-0.360522
-0.180356	0.192935	0.331625	-0.504401	0.684611	0.526201
-0.028915	0.215924	0.012763	-0.799363	0.496034	-0.339070
-0.000485	0.170820	0.662307	-0.009906	0.789581	0.613567
-0.359244	0.329060	0.458964	-0.011525	0.749292	-0.662139
-0.002788	0.609195	0.598444	0.365101	0.901661	0.231751
-0.184508	0.090537	0.152796	-0.866905	0.091572	0.489990
0.528662	0.239056	0.268020	0.822675	0.388761	-0.414815
-0.106826	0.011706	0.924180	-0.188262	0.086409	0.978310
-0.087802	0.067858	0.469213	-0.881203	0.321018	0.347029
-0.080386	0.075214	0.223584	-0.455414	0.505781	0.732656
0.208046	0.324453	0.263167	-0.854306	0.126733	-0.504083
0.022440	0.203666	0.651916	0.275677	0.632378	0.723948
0.046649	0.174560	0.131731	0.097028	0.758933	0.643899
-0.069193	0.275871	0.482203	0.048935	0.382334	0.922728
0.142204	0.510492	0.636365	0.620076	0.712019	0.329446
0.118648	0.083549	0.250741	0.573632	0.447867	0.685829
-0.030788	0.387425	0.208722	0.324589	0.902882	0.281863
-0.023469	0.007121	0.657923	-0.319859	0.786198	-0.528756
0.016143	0.192680	0.186081	-0.405979	0.611887	-0.678804
0.302524	0.171698	0.044073	0.484924	0.448064	-0.751057
0.129347	0.632417	0.596543	0.114704	0.946431	0.301845
-0.119827	0.013475	0.415380	-0.829989	0.065484	-0.553922
0.016483	0.619861	0.642657	0.393890	0.867365	0.304184
-0.120483	0.187318	0.493610	-0.533449	0.841866	0.081811
-0.227534	0.384957	0.497528	0.238859	0.246621	0.939215
0.512740	0.221096	0.470870	0.937105	0.296157	-0.184729
-0.052428	0.233269	0.170671	-0.188225	0.489337	-0.851541
0.207601	0.519848	0.471090	0.877541	0.464921	-0.117351
-0.125566	0.652967	0.114500	0.008355	0.447102	-0.894444
0.234511	0.199192	0.493590	-0.290343	0.938880	-0.184948
0.249914	0.377413	0.731735	0.924156	0.351407	0.149831
0.748582	0.024932	0.100773	0.977485	0.094599	-0.188613
-0.139742	0.216768	0.371845	-0.363074	0.666840	0.650770
0.026835	0.054890	0.334653	0.109644	0.520058	0.847064
0.045246	0.549921	0.646785	-0.015804	0.999298	-0.033977
0.035642	0.187732	0.224964	0.053168	0.131417	0.989900
-0.210915	0.484902	0.578205	-0.190191	0.963186	0.190000
0.074431	0.139460	0.192228	0.431139	0.756383	0.491939
-0.198064	0.174206	0.373329	-0.746859	0.617799	0.246019
-0.220661	0.255018	0.347623	-0.140783	0.819451	-0.555589
-0.499941	0.086417	0.699464	-0.170535	0.630944	0.756854
-0.273432	0.060453	0.884628	-0.690513	0.467702	0.551767
-0.028906	0.197525	0.250601	-0.664197	0.698833	0.265472
0.134242	0.650108	0.311810	0.901218	0.352470	0.252133
-0.084469	0.033401	0.269629	-0.889579	0.098130	0.446117
-0.266537	0.110307	0.315706	-0.822859	0.492577	-0.283322
-0.156796	0.221301	0.382808	-0.387619	0.912616	0.129941
-0.127140	0.118322	0.574056	0.951517	0.238968	-0.193676
0.261513	0.133770	0.605104	0.701542	0.551579	0.451221
0.016523	0.248391	0.028675	0.122922	0.693966	-0.709437
-0.132296	0.266351	0.002723	-0.905494	0.405152	0.126228
0.107579	0.084623	0.142691	0.225782	0.093608	0.969670
-0.001981	0.180103	0.182686	0.232957	0.968260	0.090570
0.012700	0.584026	0.542176	0.175900	0.079876	0.981162
-0.229951	0.530727	0.355742	-0.680133	0.707971	-0.190253
-0.031146	0.064375	0.270902	0.188894	0.015671	0.981872
-0.390703	0.173049	0.099513	-0.930995	0.000021	-0.365032
-0.016399	0.131086	0.740199	-0.060475	0.725420	0.685644
-0.260576	0.391105	0.401570	-0.397353	0.906471	-0.142904
0.037266	0.439968	0.172012	0.303382	0.907985	0.289004
-0.017287	0.180348	0.141786	-0.581356	0.518396	-0.627129
-0.228877	0.088688	0.072427	-0.839035	0.283691	-0.464263
0.075994	0.178997	0.106734	0.836595	0.532359	-0.129241
0.072471	0.039592	0.361944	-0.493942	0.189422	-0.848611
-0.550562	0.405280	0.143462	-0.370330	0.801667	-0.469240
0.054949	0.072704	0.293047	0.403077	0.490945	0.772336
-0.319506	0.032482	0.173668	-0.203707	0.106636	0.973207
-0.294058	0.098394	0.552032	-0.506570	0.493222	-0.707191
0.293164	0.102102	0.293985	0.967582	0.205065	-0.147425
0.058373	0.170061	0.416061	-0.265728	0.691576	0.671648
0.277770	0.699563	0.256636	0.151104	0.978593	-0.139725
0.129116	0.161694	0.702328	0.365319	0.231271	0.901696
-0.167075	0.264171	0.361798	0.925222	0.249059	-0.286241
-0.196871	0.098132	0.722433	-0.073067	0.902491	0.424465
0.021804	0.026907	0.299071	0.178122	0.133754	0.974876
0.254228	0.259858	0.145265	0.798290	0.141041	-0.585526
-0.043681	0.295306	0.429935	-0.018797	0.992111	0.123949
-0.430114	0.114032	0.317760	-0.703417	0.435412	0.561801
-0.168330	0.263357	0.777142	-0.568466	0.821827	-0.038037
-0.276895	0.190565	0.595740	0.119771	0.862983	-0.490832
-0.329973	0.480951	0.187986	-0.883548	0.007812	-0.468275
-0.560328	0.140697	0.364132	-0.952531	0.232551	-0.196483
0.147927	0.211987	0.652022	0.424311	0.829924	0.362197
-0.265217	0.124293	0.046631	-0.531396	0.293309	-0.794725
-0.462067	0.182092	0.171879	-0.590039	0.561025	-0.580607
-0.096893	0.430418	0.308996	-0.014232	0.998675	-0.049457
-0.145174	0.029653	0.256432	-0.446095	0.084173	0.891019
-0.197566	0.311776	0.221473	-0.375068	0.778693	-0.502953
-0.397981	0.060436	0.076456	-0.528076	0.117459	0.841035
0.019574	0.027823	0.510450	0.694568	0.121317	-0.709125
0.066956	0.046188	0.657833	0.483170	0.241106	0.841674
0.082890	0.025221	0.379408	0.793236	0.088398	0.602464
0.417703	0.484400	0.472455	0.483410	0.873401	-0.059043
0.234985	0.262002	0.323424	0.808664	0.509347	0.294327
0.199199	0.241956	0.818210	0.579552	0.059026	0.812795
-0.300011	0.273825	0.637030	-0.507049	0.861873	0.008753
0.237402	0.221851	0.331771	0.375163	0.247972	-0.893176
0.158725	0.032807	0.564643	0.966680	0.126765	0.222396
0.046406	0.306197	0.349556	-0.041584	0.941101	0.335558
-0.314078	0.446054	0.392249	-0.234550	0.932228	-0.275568
-0.111850	0.108486	0.184182	-0.274805	0.419562	-0.865130
0.101667	0.114886	0.226393	-0.772433	0.529497	0.350686
-0.325801	0.629975	0.487541	-0.424030	0.872282	0.243563
0.379432	0.086908	0.432787	0.986858	0.026516	0.159400
0.028243	0.047547	0.500790	-0.920520	0.160695	0.356117
0.630511	0.363032	0.071486	0.852823	0.281669	-0.439723
-0.584581	0.505453	0.298410	-0.824329	0.526983	0.206811
0.047737	0.211447	0.819450	-0.065985	0.466705	0.881948
-0.142067	0.204180	0.042381	-0.414770	0.891962	-0.179918
0.290056	0.423521	0.626071	0.532299	0.831466	0.159130
-0.211090	0.309966	0.378527	-0.064016	0.976397	-0.206276
0.266682	0.017868	0.497962	-0.993054	0.012259	-0.117021
0.328618	0.100696	0.099256	0.902772	0.207159	-0.376946
-0.204935	0.087855	0.704191	0.910663	0.055915	0.409350
-0.174169	0.229893	0.909445	-0.581495	0.274568	0.765818
-0.122481	0.074856	0.280205	-0.633205	0.120849	-0.764491
-0.051971	0.201259	0.089441	-0.486113	0.086058	0.869648
-0.152794	0.436027	0.354441	0.110174	0.854237	-0.508075
0.166030	0.582664	0.071150	0.687598	0.726084	0.003287
0.020113	0.009872	0.576387	0.181760	0.197754	-0.963253
0.183356	0.132360	0.167031	0.695268	0.145031	-0.703967
0.050912	0.276904	0.280431	0.293433	0.693680	0.657804
0.105854	0.045827	0.851884	0.253965	0.084616	0.963505
0.283175	0.194876	0.904360	0.167093	0.102325	0.980617
0.087883	0.180407	0.546742	0.382347	0.694357	0.609655
0.076237	0.043303	0.736084	0.821150	0.316217	0.475100
0.672166	0.359112	0.339171	0.713379	0.673882	0.192285
0.008964	0.182910	0.426013	0.246127	0.644421	0.723978
0.364253	0.166763	0.522552	0.806299	0.391472	-0.443431
0.144426	0.113149	0.148152	0.754111	0.655582	0.039093
0.612095	0.338342	0.454365	0.814466	0.574144	0.083691
-0.100654	0.237594	0.586229	-0.393271	0.861021	-0.322460
0.050941	0.332455	0.235902	0.709115	0.701654	-0.069554
0.123515	0.207825	0.217125	0.861949	0.165637	-0.479174
-0.018344	0.178239	0.817127	-0.145775	0.797120	0.585960
0.178827	0.141674	0.957748	0.311049	0.182923	0.932624
0.010566	0.339922	0.292759	0.922061	0.013701	0.386801
-0.173046	0.052639	0.162008	-0.853479	0.225241	0.469937
0.011217	0.746630	0.362148	-0.307230	0.951201	-0.028735
0.032363	0.279514	0.155247	0.053041	0.987730	-0.146891
0.169950	0.183748	0.925562	0.319689	0.245078	0.915279
0.516477	0.317936	0.413491	0.051975	0.481764	0.874758
0.334531	0.097349	0.141536	0.957855	0.145051	-0.247940
0.053975	0.191524	0.456615	0.258965	0.937795	-0.231251
-0.329526	0.125928	0.222801	-0.834725	0.182257	0.519632
0.085332	0.243799	0.017667	0.338844	0.936247	0.092873
0.245714	0.142968	0.651523	0.712296	0.435404	0.550506
0.186837	0.077659	0.164913	0.917958	0.213727	0.334177
0.099496	0.304911	0.492803	0.248581	0.620347	-0.743893
0.040003	0.446668	0.546171	0.339619	0.891474	0.299889
-0.373655	0.236991	0.309812	0.207465	0.941548	-0.265417
-0.025227	0.182655	0.086231	0.033656	0.076916	-0.996469
-0.366695	0.408960	0.232239	-0.818464	0.522447	0.239093
0.304063	0.169866	0.408759	-0.926427	0.364963	-0.092389
0.012562	0.150017	0.188015	-0.023465	0.722998	0.690451
0.147705	0.397487	0.533148	-0.282107	0.956601	-0.073004
0.023085	0.205705	0.360457	-0.319007	0.466379	-0.825061
-0.033679	0.533026	0.336549	-0.971716	0.029891	-0.234252
-0.015274	0.168506	0.221618	0.650384	0.667620	-0.362331
0.027981	0.119831	0.038341	0.769051	0.532578	-0.353443
-0.315999	0.513792	0.437111	-0.527697	0.606038	0.595192
-0.238161	0.090735	0.172716	-0.985124	0.164554	0.049521
-0.220456	0.376198	0.142567	0.958429	0.082746	-0.273070
-0.389377	0.027682	0.279487	-0.229425	0.094186	0.968759
0.190407	0.186884	0.411166	0.658327	0.713141	0.240907
-0.228596	0.339132	0.019227	0.343203	0.384513	-0.856949
