-0.401027	0.352355	0.260095	-0.360928	0.717158	-0.596167
0.334654	0.302532	0.259092	0.871711	0.133691	-0.471431
0.137005	0.089403	0.202913	0.613354	0.390898	0.686291
-0.307280	0.440901	0.089667	-0.741134	0.358735	0.567477
0.044881	0.114835	0.873016	0.207154	0.551407	0.808107
0.157400	0.088329	0.022670	0.859360	0.483239	-0.167275
0.051748	0.159069	0.037354	0.283721	0.810941	-0.511740
0.240099	0.227794	0.365329	-0.754972	0.568468	-0.326896
0.009001	0.298190	0.527953	0.612895	0.159422	-0.773915
-0.141301	0.114317	0.143208	-0.806851	0.590167	0.026344
-0.193708	0.043865	0.478192	-0.958413	0.269899	0.092728
-0.213164	0.457372	0.175405	-0.798577	0.367372	0.476774
-0.050590	0.117937	0.396920	-0.003514	0.112984	0.993591
-0.014748	0.124918	0.216518	0.047175	0.256138	0.965488
0.259885	0.052237	0.311754	0.930878	0.220844	0.291022
-0.653888	0.305177	0.017219	-0.832491	0.367117	-0.414949
0.234534	0.339412	0.317241	0.388210	0.865312	0.317062
0.036532	0.181580	0.347077	-0.426824	0.647663	0.631152
0.248930	0.176967	0.219750	0.751902	0.657919	0.042259
0.133488	0.505034	0.795587	0.249457	0.602032	0.758504
-0.272178	0.656559	0.434527	-0.693504	0.661818	0.284693
0.186819	0.082876	0.484522	0.747630	0.472983	-0.466193
-0.209899	0.617504	0.492973	0.405508	0.863578	0.299660
0.041775	0.463917	0.506302	-0.741069	0.488494	-0.460641
0.365195	0.617876	0.240077	0.200618	0.799425	0.566280
-0.024805	0.249696	0.954216	0.139284	0.279219	0.950072
0.058525	0.218890	0.033717	0.054478	0.473264	-0.879235
0.629652	0.071029	0.496914	0.988965	0.114840	0.093597
0.218649	0.117195	0.727997	0.730993	0.609715	-0.306424
-0.243565	0.221577	0.690397	-0.560764	0.796316	0.226771
-0.070756	0.051533	0.601334	-0.254079	0.271057	-0.928424
0.016670	0.377797	0.226636	0.693386	0.310938	-0.650026
0.146473	0.149810	0.176894	0.754698	0.235082	0.612509
0.232027	0.079307	0.183174	-0.719042	0.325963	-0.613781
-0.149221	0.102207	0.930391	-0.617638	0.371206	0.693347
-0.391692	0.578874	0.239654	-0.755359	0.357301	0.549335
-0.143334	0.045114	0.455830	-0.942196	0.174883	-0.285801
0.418268	0.447989	0.601251	0.600720	0.799448	-0.004235
0.216115	0.013166	0.717568	0.776151	0.512018	0.368004
-0.101590	0.308129	0.236663	-0.802647	0.256116	-0.538667
0.246821	0.180534	0.071531	0.676692	0.536591	-0.504141
0.255115	0.178121	0.574647	0.773909	0.467346	0.427377
-0.142364	0.061862	0.685868	-0.632076	0.277128	0.723657
0.168766	0.142446	0.066418	0.728884	0.544052	-0.415614
0.081147	0.138775	0.032446	0.164823	0.764743	-0.622898
0.151507	0.733735	0.442401	0.194562	0.908770	0.369165
0.044781	0.033098	0.619858	-0.027156	0.915236	-0.402002
0.106019	0.505396	0.133617	0.696945	0.690922	-0.192080
-0.283952	0.028433	0.160998	-0.936382	0.061101	-0.345623
-0.154376	0.281942	0.690009	-0.258091	0.525253	0.810863
-0.069884	0.161638	0.698936	-0.295049	0.768784	0.567377
-0.132102	0.243091	0.077786	-0.143078	0.345232	-0.927547
-0.017908	0.251698	0.254634	0.093202	0.961542	-0.258359
0.192982	0.026449	0.631639	0.908764	0.092057	0.407031
0.515275	0.078373	0.381673	0.931853	0.362690	0.010274
0.255975	0.055772	0.830457	0.927025	0.320255	0.195092
-0.055484	0.087654	0.339984	-0.462422	0.110634	0.879731
-0.027792	0.194278	0.522383	-0.234108	0.441014	0.866429
0.404278	0.241961	0.688877	0.614135	0.692173	0.379123
0.254589	0.121331	0.357900	-0.148550	0.518981	0.841779
-0.321596	0.492311	0.223372	0.238198	0.927004	0.289697
0.116549	0.156513	0.655130	0.922470	0.248009	0.295872
0.163117	0.105231	0.814712	0.641413	0.586748	0.494283
-0.269396	0.054960	0.411301	0.581276	0.610126	-0.538391
-0.597962	0.422120	0.115011	-0.780517	0.576551	-0.241624
-0.538127	0.379361	0.542102	-0.902983	0.416328	0.106267
-0.267366	0.175755	0.001513	-0.723652	0.607252	-0.327982
0.279718	0.294733	0.486661	0.915313	0.401708	0.028858
-0.151490	0.159937	0.219309	-0.393790	0.774983	0.494299
0.293893	0.129026	0.748491	0.978778	0.003201	0.204900
0.052112	0.178687	0.207271	0.801822	0.367447	0.471237
0.102641	0.166238	0.705668	0.304791	0.711165	0.633519
0.304505	0.451645	0.132033	0.712865	0.495842	0.495948
-0.105648	0.231562	0.042078	-0.436388	0.675320	-0.594566
0.077418	0.164781	0.010926	0.337398	0.472920	-0.813947
-0.093480	0.355818	0.006954	-0.104809	0.358771	-0.927523
-0.335409	0.193260	0.752594	-0.098184	0.243779	0.964848
0.559917	0.350052	0.638210	0.736654	0.365584	0.568937
0.114076	0.619034	0.203079	-0.089790	0.945171	-0.313991
-0.208273	0.196597	0.243208	-0.477102	0.781365	-0.402295
0.569736	0.383432	0.363603	0.612437	0.630422	-0.476958
-0.267786	0.229456	0.195526	-0.371887	0.781723	0.500609
0.218253	0.133536	0.359734	0.795084	0.380621	0.472197
0.053198	0.133510	0.286214	0.029981	0.834425	0.550305
0.205364	0.128616	0.729090	0.396381	0.201811	0.895631
-0.031680	0.271277	0.678034	0.813419	0.510893	-0.278097
0.066558	0.073868	0.514620	0.603591	0.278538	0.747057
-0.148789	0.108221	0.382706	-0.354984	0.266141	0.896189
-0.091190	0.117215	0.985514	-0.102901	0.179379	0.978384
-0.072844	0.202038	0.765160	0.176608	0.947468	0.266673
-0.059222	0.169107	0.234643	-0.707507	0.701867	-0.082560
-0.180133	0.573053	0.397136	0.218512	0.964186	0.150327
0.196730	0.059030	0.484642	0.914295	0.314841	-0.254832
-0.470853	0.509223	0.345944	0.009206	0.830031	0.557641
-0.249736	0.285088	0.645779	-0.119183	0.890335	-0.439430
-0.114588	0.422685	0.566931	0.489869	0.550107	0.676322
-0.698681	0.264043	0.385465	-0.797133	0.295178	0.526735
-0.607793	0.253372	0.556941	-0.859427	0.508325	0.054686
0.233363	0.330616	0.040693	0.492672	0.706116	-0.508600
-0.520858	0.580404	0.247460	-0.590903	0.793388	-0.146185
-0.042201	0.156544	0.082261	0.511091	0.575997	0.637977
0.377661	0.113506	0.422127	0.877678	0.478013	-0.034417
0.164113	0.274282	0.152219	0.481689	0.866682	0.129760
-0.036784	0.041200	0.546403	0.334807	0.104961	0.936423
0.068188	0.003204	0.324663	0.353641	0.017417	0.935219
-0.068142	0.345401	0.348603	-0.679891	0.493983	-0.541968
-0.091366	0.152277	0.162350	-0.645081	0.453231	-0.615185
-0.173779	0.210154	0.652406	-0.678787	0.490204	-0.546762
0.273773	0.097210	0.504132	0.096656	0.509330	-0.855126
0.343650	0.123700	0.039127	0.427308	0.260476	-0.865771
-0.312592	0.107923	0.505439	-0.757706	0.535359	-0.373192
0.294270	0.030226	0.496606	0.864917	0.447302	-0.227684
0.110680	0.202248	0.828767	-0.132474	0.931036	0.340034
-0.335840	0.361650	0.196452	-0.871645	0.361913	-0.330535
0.037242	0.458522	0.169745	-0.006033	0.940807	-0.338889
-0.084172	0.511036	0.190022	0.923940	0.095933	0.370314
-0.210068	0.189509	0.164076	-0.754474	0.656330	-0.000448
-0.009361	0.113014	0.339805	-0.035477	0.554801	-0.831226
-0.078899	0.110324	0.688851	0.292184	0.077727	0.953198
-0.454093	0.603798	0.074502	-0.600479	0.792161	-0.109116
-0.012176	0.417282	0.486571	-0.357234	0.816857	0.452912
0.002996	0.203969	0.184412	0.013277	0.912727	0.408354
-0.543054	0.149516	0.525802	-0.887514	0.425119	-0.177740
0.167901	0.066400	0.505659	0.823526	0.220899	0.522503
-0.242105	0.056247	0.546407	0.108349	0.989328	-0.097421
-0.150940	0.449500	0.353945	-0.073998	0.834268	-0.546371
0.045680	0.235314	0.323561	0.070992	0.836035	0.544064
0.045164	0.339512	0.329650	0.117347	0.991699	-0.052564
-0.054822	0.095938	0.389352	0.203370	0.261853	0.943437
-0.503831	0.474472	0.082426	-0.987682	0.128886	-0.088725
0.284490	0.453434	0.564160	-0.032284	0.988286	-0.149162
-0.289181	0.068610	0.261246	-0.957417	0.238019	-0.163398
-0.410092	0.369394	0.336275	-0.801047	0.586218	-0.121127
-0.285667	0.335557	0.389585	0.550797	0.268830	0.790160
-0.413343	0.041696	0.735102	-0.850835	0.180624	0.493412
-0.360707	0.375003	0.725503	-0.752348	0.019355	0.658481
0.151370	0.575197	0.141011	0.329803	0.847275	-0.416359
0.069390	0.077076	0.893185	0.479779	0.449884	0.753270
-0.161298	0.121016	0.801172	-0.789459	0.595185	0.150030
-0.280751	0.258060	0.106606	0.253623	0.965841	-0.053172
0.166812	0.086550	0.494230	0.736034	0.200482	0.646577
-0.121494	0.109488	0.840621	-0.517793	0.432183	0.738314
-0.155177	0.401779	0.556107	0.731514	0.604006	-0.316329
0.108708	0.123082	0.688933	-0.832734	0.553669	0.002051
-0.174398	0.306195	0.234951	-0.697705	0.592172	0.403163
0.045510	0.179090	0.043488	-0.311651	0.844185	0.436149
-0.344418	0.284699	0.285070	-0.697282	0.649195	-0.303882
0.307758	0.011904	0.608799	0.918377	0.212445	-0.333843
0.011306	0.300200	0.746314	0.075721	0.993800	-0.081411
-0.497293	0.199093	0.247550	-0.819004	0.374521	-0.434702
0.093768	0.269169	0.519102	0.611338	0.789218	-0.058317
-0.098437	0.226115	0.029119	-0.262047	0.445379	-0.856136
-0.088988	0.265769	0.079719	-0.154497	0.975784	0.154841
-0.212316	0.127212	0.565989	0.325140	0.609673	0.722899
0.233820	0.215163	0.457700	0.713653	0.680823	0.164863
-0.162947	0.101737	0.069101	-0.789853	0.557683	-0.255190
0.262399	0.009980	0.141716	0.987718	0.033014	-0.152722
0.033599	0.021002	0.304564	0.166907	0.090521	-0.981808
-0.309125	0.102600	0.858473	-0.795125	0.350942	0.494588
-0.286952	0.106631	0.226684	-0.907411	0.341475	-0.244949
-0.048484	0.054704	0.333312	-0.100843	0.091141	0.990719
-0.322698	0.274108	0.606387	-0.738708	0.663416	0.119125
0.143194	0.336384	0.874586	-0.197974	0.462921	0.864008
0.132273	0.101940	0.404695	-0.779042	0.255376	0.572605
0.369247	0.329759	0.715977	0.196624	0.698236	0.688335
-0.320796	0.473093	0.463307	-0.567203	0.720296	0.399318
-0.129608	0.087886	0.541053	-0.719346	0.418841	0.554179
0.357106	0.110165	0.822369	0.454250	0.126880	0.881793
-0.592352	0.187312	0.487694	-0.669128	0.637848	-0.381337
-0.214928	0.024804	0.621507	-0.827497	0.044599	0.559696
-0.218659	0.309116	0.239164	-0.743491	0.642985	-0.183824
-0.087515	0.309746	0.003406	-0.728037	0.624497	0.282782
-0.013913	0.293441	0.068741	-0.272283	0.854187	-0.442974
0.035933	0.238580	0.116593	0.339588	0.869213	-0.359372
-0.167224	0.073819	0.000647	-0.701478	0.361917	-0.613958
0.118899	0.401555	0.575466	0.926779	0.216722	-0.306778
-0.203761	0.340868	0.843237	-0.237012	0.589622	0.772121
-0.385121	0.095281	0.578226	-0.939432	0.286368	0.188310
-0.374001	0.525631	0.103735	-0.372476	0.766194	0.523649
-0.067464	0.180640	0.248072	-0.125535	0.272966	0.953798
0.007249	0.107608	0.082825	0.753151	0.492939	-0.435630
-0.227060	0.394996	0.183140	0.218103	0.421362	-0.880276
0.058610	0.155337	0.613317	0.436069	0.899752	0.017047
0.074111	0.052050	0.358372	-0.983752	0.008392	-0.179336
-0.345699	0.294626	0.162288	-0.644491	0.379934	0.663537
-0.166767	0.263174	0.877681	-0.355022	0.723007	0.592639
-0.584556	0.201244	0.558212	-0.658419	0.747466	0.088194
-0.053883	0.176331	0.604407	-0.263836	0.395770	-0.879634
-0.265058	0.493122	0.543614	-0.678317	0.487988	0.549321
0.119969	0.183060	0.738486	0.593917	0.803832	-0.033409
0.705229	0.313171	0.207955	0.833766	0.546970	-0.075215
-0.152979	0.272106	0.309475	-0.489243	0.863854	-0.119993
-0.337185	0.599143	0.489161	-0.272515	0.961266	-0.041282
0.010462	0.278989	0.206203	0.292987	0.430933	-0.853496
-0.009084	0.129990	0.902037	0.423649	0.466036	0.776744
-0.059706	0.455525	0.518126	-0.727224	0.361957	-0.583209
-0.342325	0.195811	0.013904	-0.711771	0.381924	-0.589504
0.039716	0.097095	0.930974	0.467540	0.217748	0.856733
0.064374	0.146103	0.908936	0.586392	0.504269	0.633922
-0.057375	0.152181	0.311779	-0.677304	0.379954	0.629996
-0.304914	0.032279	0.428758	0.918041	0.128525	-0.375077
0.034525	0.246772	0.643301	-0.511946	0.849059	0.130419
-0.059544	0.186809	0.491430	-0.213303	0.738834	0.639239
-0.147137	0.571902	0.441284	0.055900	0.427819	0.902134
0.105870	0.029853	0.776543	0.605417	0.795830	-0.011199
-0.028533	0.380423	0.291577	-0.102710	0.963793	-0.246076
0.175769	0.165451	0.208443	-0.542289	0.099416	0.834290
0.264314	0.085023	0.278563	0.679181	0.410202	-0.608644
-0.004727	0.047961	0.827485	-0.835470	0.450893	0.314142
-0.662403	0.151812	0.345935	-0.401330	0.804944	0.437035
0.015715	0.138415	0.635176	0.123496	0.635229	-0.762386
0.194673	0.153561	0.360433	0.896899	0.109375	-0.428497
0.103024	0.252377	0.412432	0.413066	0.907001	-0.082010
0.026872	0.094227	0.449640	0.142644	0.430653	-0.891174
0.249044	0.072952	0.277303	0.943028	0.116712	-0.311570
0.066207	0.152159	0.244513	0.300189	0.812945	0.499005
-0.136734	0.284957	0.391474	-0.817672	0.564153	-0.114644
-0.261796	0.230227	0.368898	-0.968039	0.250674	-0.007922
-0.016858	0.253070	0.269389	-0.053370	0.969981	-0.237253
0.206005	0.687256	0.291219	0.720631	0.666503	0.190955
-0.114761	0.092374	0.716127	-0.785876	0.546843	-0.288724
0.378303	0.537659	0.055086	0.340759	0.928945	-0.144720
0.373523	0.049955	0.662335	0.665365	0.648225	-0.370262
-0.278778	0.399402	0.162083	-0.394597	0.685160	-0.612248
0.290431	0.198862	0.212157	-0.020652	0.009764	0.999739
0.018713	0.164106	0.107640	-0.749944	0.625183	-0.216173
-0.024590	0.109128	0.307656	-0.270931	0.560646	0.782478
0.183642	0.068039	0.330758	-0.327877	0.214941	0.919944
-0.197121	0.212690	0.093406	-0.066087	0.185014	0.980511
0.178998	0.097760	0.276520	0.897616	0.016720	0.440461
-0.120618	0.136905	0.470790	-0.604608	0.667161	-0.435138
-0.167693	0.132735	0.266361	-0.933351	0.314378	0.173273
0.040421	0.089760	0.660456	0.046172	0.762871	0.644900
0.076308	0.222027	0.829046	0.699442	0.682332	0.212613
-0.291266	0.329914	0.844251	-0.354687	0.091731	0.930474
0.574027	0.169056	0.659904	0.751410	0.172295	0.636944
0.103191	0.113353	0.451898	0.492992	0.663119	-0.563233
-0.053211	0.206083	0.001029	0.239223	0.416895	-0.876910
-0.139168	0.261815	0.892088	-0.426191	0.679042	0.597715
0.255633	0.009503	0.229319	0.937101	0.002608	-0.349048
0.134513	0.136677	0.143273	0.742426	0.669567	0.021999
-0.469944	0.138650	0.329149	-0.779694	0.399891	-0.481835
-0.007266	0.332172	0.358780	-0.025775	0.998815	-0.041272
0.642522	0.187984	0.419575	0.737951	0.669119	0.087796
0.010552	0.697294	0.105627	0.015531	0.899797	-0.436033
-0.038023	0.418627	0.405398	0.281495	0.948800	0.143315
-0.324903	0.302705	0.406614	-0.890691	0.445765	-0.089239
0.040248	0.231746	0.281376	0.141673	0.747598	0.648866
0.136764	0.111698	0.278963	0.874693	0.242387	0.419714
0.381165	0.574297	0.523683	0.091519	0.856745	0.507554
0.474011	0.393900	0.044676	0.639546	0.484663	-0.596726
0.140688	0.249324	0.015597	-0.080388	0.308474	-0.947830
0.073942	0.135154	0.802649	-0.072343	0.993485	0.088059
-0.657881	0.196477	0.005832	-0.813940	0.352379	-0.461876
-0.028598	0.114654	0.295287	-0.141245	0.649868	0.746807
0.238406	0.152264	0.355115	0.707808	0.698357	0.106328
-0.079242	0.103295	0.628035	-0.394251	0.434195	-0.809964
0.199446	0.082105	0.858593	0.474721	0.263171	0.839870
0.006207	0.125528	0.511219	0.048547	0.753394	-0.655775
0.182195	0.047609	0.682894	0.207372	0.627467	0.750521
0.437676	0.014614	0.685447	0.994554	0.036491	0.097630
0.067381	0.203309	0.817543	0.616703	0.768750	0.169412
0.149067	0.177505	0.212668	0.169839	0.686168	0.707339
0.071274	0.296906	0.309178	-0.926682	0.081515	-0.366901
-0.077274	0.078426	0.244427	0.685330	0.012809	0.728120
0.228177	0.332991	0.873082	0.250587	0.631821	0.733491
0.040215	0.278986	0.336857	-0.027380	0.971160	-0.236853
-0.278857	0.195467	0.370178	0.476824	0.039029	-0.878132
-0.087576	0.027841	0.336413	0.340927	0.078055	-0.936844
0.197798	0.196424	0.808654	0.536531	0.522514	0.662656
-0.332012	0.167470	0.572575	-0.901751	0.432251	-0.002209
0.207888	0.614533	0.352446	0.265709	0.963662	-0.027451
-0.139834	0.094570	0.435313	-0.654064	0.716713	-0.241915
-0.160139	0.386983	0.820670	-0.405661	0.236571	0.882878
0.101956	0.159166	0.057392	0.493102	0.767431	-0.409757
-0.307835	0.311927	0.492797	-0.859472	0.171621	0.481513
-0.698375	0.237851	0.209156	-0.799405	0.292918	-0.524548
0.180076	0.203699	0.669810	0.476993	0.611771	0.631042
0.186883	0.206750	0.082515	0.339722	0.782982	0.521084
-0.224471	0.365685	0.510433	-0.906381	0.367174	-0.208944
-0.198233	0.225125	0.789572	-0.570832	0.591717	0.569229
-0.137650	0.249227	0.506649	-0.477716	0.875226	0.075939
0.151900	0.669115	0.485527	-0.381713	0.884195	0.269248
0.156557	0.002146	0.924217	0.048420	0.611710	0.789599
-0.396302	0.214430	0.497475	-0.980633	0.077035	0.180067
-0.189590	0.044657	0.411963	-0.839818	0.279531	-0.465369
-0.169071	0.078289	0.509765	-0.498469	0.362184	0.787624
0.038066	0.276229	0.308844	0.363161	0.808352	-0.463336
0.044744	0.120109	0.348766	-0.099264	0.140447	-0.985100
0.127111	0.234178	0.757232	0.362388	0.918813	0.156392
0.108653	0.145746	0.191981	-0.290473	0.389039	0.874228
0.053151	0.203417	0.590514	0.178746	0.962432	0.204387
0.119914	0.191459	0.372837	0.999832	0.018257	0.001628
0.124281	0.031877	0.754568	0.639085	0.165372	0.751147
-0.192099	0.530189	0.143895	-0.363574	0.524993	0.769543
-0.322078	0.182947	0.684299	-0.770277	0.631398	0.089503
0.208814	0.140646	0.098179	0.676027	0.245609	-0.694740
-0.469940	0.043918	0.553255	0.020047	0.966856	0.254535
0.520653	0.405331	0.277859	0.238134	0.715550	-0.656720
-0.058857	0.133367	0.239521	-0.143168	0.963928	0.224377
0.027976	0.356552	0.449046	0.864715	0.434789	-0.251448
0.123822	0.342021	0.217247	-0.681654	0.607372	0.407979
-0.148317	0.266328	0.651955	-0.371958	0.928116	0.015749
-0.106232	0.291320	0.121456	-0.876465	0.163575	-0.452826
-0.018239	0.258718	0.185796	0.060785	0.856771	-0.512102
0.253232	0.119438	0.269260	-0.212420	0.392553	-0.894863
-0.390870	0.200576	0.554866	0.403666	0.862740	0.304522
0.174849	0.032230	0.809249	0.709666	0.119030	0.694411
0.048387	0.118054	0.507790	0.055876	0.998299	0.016624
-0.020636	0.096433	0.271255	0.048309	0.161256	0.985730
0.128291	0.368140	0.667399	0.741814	0.564463	0.362068
0.015361	0.080511	0.404814	-0.299340	0.324580	0.897242
-0.050358	0.171016	0.067259	0.888361	0.369832	0.272101
-0.198863	0.565441	0.070809	0.501431	0.850308	0.159825
-0.010776	0.420498	0.141643	-0.440066	0.782814	0.439936
0.210445	0.061337	0.903064	0.555379	0.314911	0.769666
-0.618261	0.220588	0.258082	-0.782934	0.328082	-0.528560
-0.179942	0.433042	0.815475	-0.355876	0.661682	0.659947
-0.018669	0.096668	0.768141	-0.051339	0.609166	0.791379
-0.290513	0.047192	0.737780	-0.144978	0.315969	0.937627
0.362839	0.299450	0.294780	0.396147	0.898029	-0.191343
0.420579	0.323193	0.711379	0.666291	0.643624	0.376570
-0.299200	0.460255	0.535522	-0.554915	0.816934	0.157122
0.309931	0.175173	0.486619	-0.101634	0.422391	-0.900698
0.158113	0.152395	0.438664	0.818268	0.512107	0.261123
-0.085120	0.116063	0.409029	0.917295	0.200233	-0.344205
0.075157	0.165405	0.611967	0.369584	0.808155	-0.458577
-0.155253	0.264852	0.301594	0.058974	0.948057	0.312587
0.496783	0.204705	0.043221	0.750172	0.027204	-0.660683
0.068540	0.011593	0.649353	0.451662	0.135191	0.881887
-0.676364	0.247526	0.400430	-0.561949	0.769412	0.303675
-0.225259	0.196436	0.755886	0.294645	0.741898	0.602305
0.459501	0.275137	0.011058	0.985009	0.040235	0.167747
0.178336	0.225238	0.616111	0.653250	0.613202	0.444126
-0.757380	0.136273	0.257204	-0.886310	0.448409	-0.115685
-0.061567	0.562770	0.217515	0.202986	0.191748	-0.960224
0.094543	0.286800	0.134417	0.195235	0.907359	-0.372267
-0.005239	0.250054	0.302416	0.133276	0.905722	0.402374
-0.118846	0.087798	0.671187	0.686461	0.662272	-0.300278
0.416494	0.276331	0.045982	0.674776	0.726292	0.131066
0.128178	0.081978	0.278464	0.313745	0.186170	0.931077
0.007809	0.025712	0.678348	-0.933025	0.044121	-0.357097
-0.127067	0.210061	0.636716	-0.721088	0.367757	-0.587185
-0.107123	0.219962	0.304869	0.469726	0.092907	-0.877910
0.020902	0.288232	0.214447	-0.251625	0.922150	0.293811
0.010943	0.061985	0.035465	-0.177115	0.560963	-0.808672
-0.075763	0.094937	0.774766	-0.131133	0.827275	0.546279
0.120610	0.307890	0.723066	0.942255	0.255082	0.216999
-0.153086	0.484807	0.697005	-0.803073	0.183613	0.566886
0.089118	0.188520	0.116839	0.698970	0.702087	0.136069
-0.071126	0.080707	0.903280	0.043593	0.653775	0.755433
-0.447378	0.055793	0.748755	-0.541209	0.760277	0.359265
-0.446506	0.275204	0.105211	-0.620875	0.441595	-0.647694
-0.190441	0.024072	0.725586	-0.988740	0.008156	0.149422
-0.036949	0.025416	0.735005	-0.424152	0.381455	0.821333
-0.040396	0.133232	0.555971	-0.489754	0.294414	-0.820647
-0.076942	0.352306	0.300228	-0.447829	0.652333	0.611483
-0.065568	0.217424	0.243292	0.223884	0.865574	0.447948
0.413781	0.110763	0.238965	0.258457	0.503878	0.824201
0.103405	0.106188	0.339351	0.418711	0.278944	0.864217
-0.301068	0.278289	0.221479	-0.457388	0.152075	0.876167
0.077788	0.267245	0.474308	0.424216	0.772168	0.473073
-0.435100	0.448110	0.177049	-0.663588	0.610656	-0.432146
0.733255	0.231538	0.261142	0.977570	0.149663	-0.148182
0.280492	0.099129	0.173887	0.829703	0.342049	-0.441129
0.224544	0.209119	0.682404	0.817004	0.543359	-0.193045
-0.447378	0.273576	0.274782	-0.449044	0.340092	0.826255
0.105395	0.013257	0.682446	0.648485	0.253157	0.717899
0.009088	0.193737	0.760409	0.211577	0.424576	0.880324
0.092603	0.143981	0.412853	0.429827	0.029232	-0.902438
0.270352	0.335143	0.482504	0.115849	0.749178	-0.652160
0.145863	0.245547	0.257636	-0.058123	0.105442	0.992725
-0.009199	0.306505	0.475891	0.201799	0.922419	0.329272
-0.197567	0.147628	0.630672	-0.252141	0.715961	0.651018
-0.097837	0.266133	0.302105	0.524350	0.634559	0.567796
-0.134371	0.550295	0.529955	-0.343042	0.932647	0.111767
-0.150222	0.084257	0.938915	-0.357720	0.481885	0.799890
0.107905	0.121679	0.780687	0.747071	0.613404	0.256166
0.127598	0.424380	0.571236	0.264291	0.944456	0.195326
-0.045071	0.328565	0.766829	-0.758075	0.061988	0.649214
0.055810	0.126213	0.619107	0.225441	0.529399	-0.817871
-0.115669	0.298509	0.142339	-0.696283	0.268985	0.665460
-0.196833	0.396161	0.213305	-0.288342	0.151982	-0.945389
-0.269202	0.197215	0.139700	0.995037	0.057821	0.080978
-0.188027	0.155560	0.888207	-0.260884	0.488604	0.832590
0.104287	0.368006	0.135025	0.017322	0.229960	-0.973046
0.096394	0.101882	0.038250	0.813990	0.247805	-0.525369
0.001791	0.085345	0.307872	0.014526	0.406977	0.913323
-0.105559	0.214870	0.385669	0.758651	0.589691	0.276970
-0.704648	0.269044	0.072440	-0.819517	0.285687	-0.496764
-0.197300	0.055432	0.869832	-0.307188	0.041003	0.950765
-0.232221	0.077880	0.363440	-0.728540	0.079659	-0.680356
0.237012	0.125503	0.848338	0.562615	0.344279	0.751622
0.132687	0.047218	0.193686	0.672679	0.238532	0.700432
-0.174528	0.299063	0.795185	-0.517617	0.842869	0.147124
-0.065883	0.526125	0.251562	0.587786	0.799603	-0.123056
-0.005559	0.004678	0.998263	-0.032516	0.056546	0.997870
-0.532928	0.544011	0.381540	-0.521664	0.835255	0.173824
0.340200	0.265017	0.120556	0.625969	0.249806	-0.738756
0.624409	0.021326	0.339440	0.976480	0.025320	-0.214116
-0.445499	0.436295	0.646217	-0.678675	0.639469	0.361219
-0.461193	0.039601	0.743261	-0.054776	0.498603	0.865098
-0.143712	0.219956	0.276222	0.473318	0.820775	0.319842
0.066206	0.317200	0.699049	-0.424029	0.772078	0.473387
-0.289263	0.092197	0.391175	-0.891185	0.214417	0.399769
-0.380197	0.502954	0.429878	-0.110950	0.212068	0.970936
-0.656414	0.166712	0.049060	-0.941575	0.068299	-0.329805
0.192336	0.053087	0.685159	0.788808	0.301449	-0.535641
-0.076247	0.115423	0.855194	0.691083	0.501906	0.520090
0.517244	0.412432	0.245251	0.111017	0.880865	-0.460166
0.176694	0.725923	0.406495	0.113344	0.993517	-0.008765
0.233618	0.107611	0.353780	0.917420	0.202281	-0.342670
0.068733	0.069459	0.812351	0.438723	0.419517	0.794687
-0.418678	0.102602	0.686622	-0.149106	0.175276	0.973163
-0.124770	0.010820	0.741386	-0.521410	0.138078	0.842061
-0.622632	0.369145	0.377038	-0.841070	0.505766	-0.191839
-0.223601	0.164575	0.156711	-0.749582	0.597863	-0.284052
0.451496	0.438371	0.141372	0.140469	0.533665	-0.833948
0.150274	0.090988	0.436781	-0.418880	0.278485	-0.864283
-0.160787	0.498192	0.364289	0.933026	0.254498	0.254349
0.117207	0.326256	0.438147	-0.751052	0.483120	-0.450017
0.168366	0.137178	0.247969	0.763078	0.271719	-0.586413
0.194568	0.488120	0.027265	0.188310	0.949823	-0.249751
-0.098766	0.371484	0.020154	-0.071187	0.776115	-0.626560
0.062174	0.236113	0.595021	-0.397967	0.841155	-0.366169
-0.419516	0.216272	0.705800	0.104092	0.737319	0.667478
0.251077	0.032467	0.108179	0.969675	0.023890	-0.243226
-0.048465	0.505730	0.783018	-0.073722	0.786230	0.613521
0.328119	0.077812	0.361563	0.131639	0.255859	0.957709
0.135794	0.105941	0.661200	0.322291	0.731404	0.600980
0.038277	0.377496	0.178124	-0.289554	0.288819	0.912547
-0.365302	0.206451	0.808585	-0.664310	0.424867	0.614963
-0.337426	0.413532	0.412802	0.560400	0.727788	0.395318
0.172989	0.715578	0.047024	-0.110399	0.896838	-0.428361
0.218468	0.274795	0.497098	0.387417	0.921195	-0.036175
-0.316205	0.405674	0.467007	-0.695374	0.483645	-0.531547
0.020536	0.455565	0.201698	0.428180	0.876175	0.221314
-0.233079	0.438501	0.071004	-0.746565	0.426847	-0.510335
-0.292638	0.058980	0.182176	-0.845343	0.071216	-0.529455
-0.205520	0.381391	0.202556	-0.493161	0.754489	-0.433057
-0.372720	0.171445	0.329100	-0.742095	0.663877	0.092535
-0.155127	0.159977	0.198154	-0.599097	0.622658	0.503369
0.503657	0.163021	0.022566	0.955713	0.274102	0.107145
0.327002	0.243119	0.289963	0.141895	0.029521	0.989441
0.016747	0.142623	0.288266	0.179296	0.686576	0.704604
-0.425725	0.063689	0.302506	-0.258737	0.173624	-0.950216
-0.308555	0.044370	0.446129	0.756303	0.310222	-0.575994
0.280575	0.279082	0.616868	0.689648	0.619559	0.374876
0.215410	0.167790	0.213511	0.964956	0.097137	-0.243772
0.114527	0.117883	0.781241	0.862083	0.137998	0.487616
-0.442701	0.552606	0.246849	-0.766910	0.637761	-0.071491
0.154080	0.292243	0.098124	0.351059	0.770963	-0.531388
0.064827	0.049446	0.239645	0.315233	0.239905	-0.918191
-0.242208	0.251756	0.421871	-0.630765	0.742953	0.223955
0.024270	0.188482	0.600113	0.106212	0.815303	0.569211
0.226933	0.182605	0.391140	0.558280	0.653284	-0.511413
-0.020081	0.122570	0.289294	-0.149815	0.306355	0.940054
-0.720594	0.193935	0.171325	-0.739335	0.547731	-0.391631
-0.030487	0.323275	0.327494	0.564483	0.349523	-0.747792
-0.482150	0.200117	0.511658	-0.688088	0.509862	-0.516310
-0.131428	0.171826	0.121791	-0.748935	0.287931	-0.596818
0.499182	0.370181	0.315542	0.789119	0.567278	-0.235556
-0.137570	0.184257	0.044932	-0.553380	0.448323	-0.701981
0.391910	0.032468	0.183226	-0.554648	0.096256	0.826499
0.040507	0.128351	0.253335	0.147668	0.415632	0.897465
-0.156681	0.325761	0.761499	0.273802	0.862002	0.426597
0.342784	0.129080	0.730888	0.461288	0.839762	0.286379
0.020649	0.371394	0.432032	-0.159173	0.626345	-0.763122
-0.161571	0.198972	0.218750	-0.400552	0.868066	-0.293292
-0.104714	0.043324	0.244124	0.389426	0.133090	0.911391
0.344100	0.066113	0.306016	-0.869552	0.204332	0.449586
0.126871	0.262294	0.211092	0.041707	0.464791	0.884438
0.250424	0.543760	0.426035	0.036799	0.467159	0.883407
0.141558	0.386728	0.414976	-0.292663	0.846829	-0.444104
0.191011	0.560282	0.694026	0.446654	0.795116	0.410233
-0.259990	0.280829	0.746284	-0.848009	0.500974	0.172931
0.354840	0.146568	0.130588	0.833819	0.501811	-0.230067
0.169600	0.004563	0.796664	0.985869	0.158490	0.054259
-0.717324	0.097974	0.241451	-0.717541	0.608553	-0.338819
0.341284	0.230166	0.002332	0.899413	0.298705	-0.319111
-0.217834	0.283874	0.218459	-0.678347	0.450577	0.580367
0.058263	0.168360	0.221138	0.467981	0.686533	0.556477
0.022193	0.323155	0.593694	-0.921471	0.145970	-0.359978
0.019669	0.257853	0.826930	-0.566070	0.293848	0.770206
0.549247	0.452938	0.045455	0.850548	0.090152	-0.518112
0.044015	0.165563	0.792457	0.228697	0.759243	0.609302
-0.351113	0.269457	0.377651	0.565316	0.565897	-0.600149
-0.266865	0.060633	0.735525	-0.829955	0.170160	0.531243
-0.328429	0.329525	0.599133	-0.607046	0.697762	-0.380294
0.139986	0.253501	0.152882	0.303046	0.614414	-0.728463
-0.216261	0.077552	0.404498	0.018586	0.316059	0.948557
-0.027002	0.365712	0.595104	0.596879	0.339913	0.726770
-0.090694	0.266671	0.061972	0.807796	0.588324	0.036611
0.295994	0.346629	0.791896	0.712911	0.569963	0.408535
0.662571	0.194592	0.283301	0.911916	0.238479	-0.333972
0.121790	0.014015	0.956917	0.429637	0.041844	0.902032
-0.052754	0.311477	0.367060	0.417352	0.100977	0.903117
-0.155720	0.066337	0.298050	-0.827982	0.143100	-0.542188
-0.148193	0.109012	0.739022	-0.358184	0.223494	0.906507
0.136937	0.109398	0.478129	0.613419	0.552436	-0.564386
0.190841	0.072478	0.890932	0.490547	0.623993	0.608273
-0.419004	0.577080	0.320487	-0.586842	0.763205	-0.270433
-0.165892	0.620885	0.350128	0.476891	0.878053	-0.039960
-0.140844	0.361607	0.357526	-0.872234	0.444958	-0.203027
0.225802	0.190722	0.330612	0.521870	0.544797	-0.656389
0.264662	0.107248	0.799088	0.984485	0.152615	0.086591
0.438416	0.412300	0.297410	-0.001506	0.979137	-0.203194
0.148231	0.111267	0.943353	0.503088	0.339849	0.794610
-0.052404	0.139694	0.186289	-0.097974	0.991903	-0.080802
-0.012186	0.148044	0.162474	0.004659	0.268410	0.963294
-0.062277	0.281018	0.081145	-0.909853	0.405698	-0.087042
0.220201	0.098521	0.267716	0.993939	0.109652	0.007805
0.233520	0.147807	0.310483	0.814728	0.542054	0.205904
-0.323794	0.605083	0.134779	-0.718662	0.691514	0.073025
-0.138061	0.251222	0.322673	-0.500077	0.769332	0.397557
-0.197326	0.317143	0.344471	-0.505786	0.829665	0.236298
0.410394	0.091353	0.306364	-0.520906	0.272298	0.809018
0.141029	0.629081	0.059633	-0.327952	0.828474	-0.453958
-0.182119	0.171330	0.412843	0.578040	0.471633	0.665906
0.187296	0.119291	0.440316	0.661010	0.451728	0.599172
-0.019830	0.247663	0.413395	-0.424303	0.665586	-0.613972
-0.039859	0.141023	0.301468	-0.667308	0.571762	0.477272
-0.098704	0.159038	0.640599	-0.665703	0.529773	0.525528
-0.065698	0.098355	0.918466	-0.477435	0.623240	0.619376
0.277534	0.352468	0.475402	0.094107	0.987383	0.127351
-0.363420	0.116724	0.173484	0.550147	0.130699	0.824777
-0.023617	0.259951	0.120998	-0.088776	0.936687	-0.338728
0.422990	0.316221	0.746809	0.118358	0.678537	0.724968
0.044154	0.174142	0.270052	0.215348	0.421559	-0.880859
0.295195	0.014297	0.705068	0.851508	0.055496	0.521397
-0.020173	0.089256	0.330023	-0.150232	0.110137	-0.982497
0.214000	0.592403	0.388719	0.094632	0.711231	-0.696560
0.630496	0.113131	0.036853	0.965585	0.222128	-0.135294
0.391365	0.210028	0.669539	0.128529	0.590755	0.796548
-0.137388	0.083801	0.567346	0.948726	0.315495	0.019539
-0.102252	0.227192	0.425928	-0.228076	0.571461	0.788298
-0.144124	0.006725	0.187655	-0.931769	0.048729	0.359765
0.337519	0.281315	0.274654	0.973986	0.185022	-0.130834
-0.193232	0.468351	0.131850	-0.908754	0.404205	0.103851
0.435525	0.519576	0.064792	0.043526	0.954405	-0.295323
-0.007257	0.023787	0.366883	0.515540	0.036685	-0.856080
0.024412	0.374436	0.490821	0.379074	0.889012	-0.256827
-0.186771	0.029319	0.656174	-0.343820	0.101371	0.933548
0.035262	0.221186	0.570126	0.058543	0.932258	0.357027
0.256904	0.158464	0.141371	-0.070157	0.451245	-0.889638
-0.001344	0.060168	0.446011	0.003212	0.745652	-0.666328
-0.034521	0.081886	0.644102	-0.570666	0.429532	0.699888
0.667762	0.148166	0.501706	0.973110	0.226330	0.042795
-0.130215	0.239462	0.857521	0.572443	0.332643	0.749438
-0.201996	0.529188	0.417864	0.253402	0.964034	0.080164
0.203428	0.470454	0.272578	-0.187855	0.294995	0.936850
-0.034686	0.702995	0.036941	-0.098642	0.874824	-0.474292
0.141742	0.181344	0.939255	0.281704	0.327165	0.902001
-0.306236	0.188918	0.291784	-0.584109	0.716945	-0.380535
0.017502	0.026730	0.933902	-0.593385	0.169632	0.786841
-0.243838	0.018270	0.167121	-0.726538	0.024279	0.686697
-0.259717	0.593936	0.549844	-0.667944	0.737668	-0.098468
-0.179365	0.079431	0.632391	-0.879055	0.392317	-0.270832
-0.110666	0.189852	0.027450	-0.456211	0.869229	0.190559
-0.520171	0.276842	0.279030	0.061585	0.778203	-0.624985
0.197964	0.401663	0.314248	0.511192	0.496001	-0.701902
0.473653	0.227601	0.246795	-0.192479	0.856608	-0.478721
0.005333	0.077756	0.306072	0.751079	0.324606	-0.574901
0.078234	0.178784	0.829492	0.410564	0.896203	0.168101
0.041277	0.285961	0.291938	0.050092	0.424381	0.904097
0.129242	0.298770	0.622266	-0.585257	0.753775	0.298827
-0.660187	0.081483	0.152649	-0.491282	0.203603	-0.846869
0.501861	0.225273	0.709713	0.243022	0.157789	0.957101
0.066885	0.080190	0.226509	0.033059	0.121629	0.992025
-0.243923	0.550095	0.280045	0.361110	0.571939	-0.736536
0.104331	0.429049	0.129009	0.485167	0.874119	0.022991
-0.101199	0.174490	0.169816	-0.845521	0.130830	-0.517666
-0.070604	0.269480	0.551617	-0.970602	0.189963	-0.147804
0.007163	0.277360	0.853871	0.744783	0.357955	0.563175
0.096143	0.041903	0.898132	0.039137	0.756832	0.652437
0.105454	0.069471	0.215418	0.879591	0.196743	-0.433141
-0.092867	0.159749	0.585273	-0.426525	0.849608	-0.310230
-0.353701	0.089789	0.403713	-0.969526	0.244536	-0.014915
-0.023727	0.095109	0.431727	-0.408522	0.258339	-0.875426
-0.097184	0.052788	0.376829	-0.131969	0.222315	0.966002
0.142952	0.396417	0.557192	0.148962	0.739818	0.656110
0.387632	0.285567	0.557301	-0.089896	0.946716	-0.309270
0.135205	0.219112	0.421675	-0.863401	0.061367	0.500773
-0.175430	0.140422	0.191166	0.719132	0.456371	-0.523999
-0.067358	0.123254	0.834584	-0.853950	0.371033	0.364834
0.067042	0.543299	0.614688	0.784134	0.209984	0.583987
0.061491	0.065412	0.231878	0.141460	0.125476	0.981960
-0.551665	0.515457	0.169659	-0.734523	0.598599	-0.319617
-0.268971	0.179963	0.666489	-0.589332	0.099287	0.801767
0.051880	0.036744	0.015085	0.231945	0.519731	-0.822242
0.135590	0.545318	0.512634	0.016272	0.822197	-0.568971
-0.305395	0.016223	0.506627	-0.882672	0.245236	-0.400936
-0.012214	0.191410	0.100988	-0.152540	0.585944	-0.795865
-0.205527	0.263897	0.809844	0.296225	0.284562	0.911743
0.086568	0.035131	0.994245	0.133647	0.016657	0.990889
-0.082318	0.368576	0.733735	-0.354189	0.798717	0.486417
-0.673630	0.162013	0.136310	-0.951824	0.278421	0.128500
-0.165811	0.100394	0.119394	-0.953929	0.269520	-0.131826
-0.007863	0.103236	0.156750	0.432336	0.194433	-0.880501
-0.323656	0.083877	0.038888	-0.967333	0.224735	-0.117305
0.131351	0.331990	0.583032	0.169171	0.604650	-0.778318
-0.585027	0.162348	0.549023	-0.869230	0.195905	0.453939
0.486011	0.309923	0.419819	0.133011	0.801236	0.583377
-0.144002	0.535592	0.319908	-0.537303	0.739398	-0.405703
0.206836	0.046294	0.131535	0.953526	0.174606	0.245563
-0.393691	0.032886	0.498475	-0.997275	0.061284	0.041078
0.037029	0.120881	0.365155	-0.569853	0.030540	0.821179
-0.200103	0.397661	0.328789	-0.259334	0.488101	-0.833369
-0.220615	0.111727	0.450180	-0.355588	0.367706	0.859273
-0.551749	0.124823	0.615922	-0.972691	0.151549	0.175796
-0.066280	0.103094	0.623856	-0.403621	0.433577	0.805668
0.118520	0.226282	0.222995	0.724807	0.461987	0.511100
0.333539	0.206672	0.120150	0.676859	0.713877	0.179562
-0.141576	0.194786	0.357709	0.356395	0.748533	0.559178
-0.154950	0.056154	0.101848	-0.820439	0.522823	-0.231381
-0.283451	0.167288	0.558518	-0.678422	0.503919	0.534611
0.149052	0.087801	0.545174	0.727027	0.428074	0.536827
0.011497	0.214348	0.847321	0.061686	0.259234	0.963843
0.138309	0.017200	0.181300	0.701742	0.028610	0.711856
0.319917	0.147392	0.559998	-0.137717	0.966981	-0.214435
0.207571	0.111630	0.585845	0.949272	0.137364	0.282866
0.087051	0.152016	0.083573	0.536885	0.841909	-0.054256
0.183457	0.252436	0.090380	-0.185925	0.371815	-0.909497
-0.109333	0.322443	0.501490	-0.016189	0.718561	0.695276
-0.609194	0.215783	0.621772	-0.874034	0.289376	0.390289
-0.209832	0.342674	0.107038	0.567152	0.822894	0.034412
0.024015	0.647962	0.052236	-0.336300	0.602308	-0.723966
0.487739	0.425156	0.532619	0.955550	0.008414	0.294710
-0.661516	0.195470	0.574214	-0.749057	0.476329	0.460461
-0.048413	0.187656	0.141039	-0.234909	0.609306	-0.757340
-0.185402	0.056906	0.485995	-0.929962	0.257872	0.262054
-0.476786	0.369555	0.703039	-0.758719	0.388991	0.522524
0.221855	0.450001	0.193580	-0.266272	0.855059	0.444943
0.079889	0.202903	0.224678	0.541552	0.756912	0.365794
-0.049247	0.245940	0.091310	-0.479122	0.051853	0.876216
0.163359	0.190754	0.382911	-0.633358	0.225340	0.740324
0.116784	0.646667	0.153545	-0.661947	0.715030	-0.224853
-0.120364	0.082732	0.385207	0.665737	0.240969	0.706207
0.089331	0.336336	0.087462	-0.131770	0.092925	-0.986915
0.256792	0.112996	0.216575	0.634301	0.399997	0.661562
0.400822	0.135278	0.043920	0.693322	0.224736	-0.684689
-0.129392	0.167986	0.255496	-0.853874	0.519990	-0.022572
0.005387	0.064385	0.496239	-0.853263	0.029062	0.520670
-0.064197	0.129177	0.230182	-0.637504	0.760648	0.122485
0.189886	0.034993	0.325066	0.360715	0.071246	0.929951
-0.456002	0.251503	0.414532	-0.936336	0.313931	-0.157231
-0.099848	0.371481	0.690953	-0.040794	0.998517	0.036060
-0.207486	0.294627	0.124702	0.347319	0.059287	0.935871
-0.082425	0.161389	0.217501	-0.716202	0.683925	0.138931
0.235428	0.431885	0.297479	-0.855338	0.179335	0.486042
0.011382	0.295819	0.270188	-0.163616	0.341450	0.925549
0.250084	0.056561	0.404148	0.916854	0.228834	0.327130
0.058393	0.045574	0.592327	0.436899	0.304903	-0.846258
-0.280559	0.190924	0.538988	-0.873591	0.190239	0.447938
-0.383399	0.258673	0.827302	-0.671083	0.496184	0.550862
-0.078804	0.228676	0.086917	-0.539790	0.506813	-0.672136
0.042673	0.225724	0.112915	0.207943	0.975237	-0.075321
0.377222	0.339708	0.670399	0.937657	0.286449	0.196840
0.129431	0.158661	0.149991	-0.018120	0.427199	0.903976
-0.198089	0.240099	0.130266	0.649615	0.360595	0.669307
0.059832	0.707186	0.403978	0.073529	0.997170	-0.015682
-0.085360	0.165120	0.057486	-0.636132	0.633317	0.440733
0.131713	0.139587	0.182231	0.635754	0.738767	0.223696
0.664394	0.057227	0.351263	0.911480	0.176421	-0.371590
0.133694	0.529681	0.054735	0.511142	0.804557	-0.302360
0.250247	0.341017	0.652214	0.893228	0.443039	0.076551
0.008329	0.203410	0.315915	0.028810	0.897054	-0.440981
0.407234	0.119533	0.691174	0.574318	0.815372	-0.072984
-0.552305	0.541002	0.215596	-0.686858	0.719336	-0.103835
0.089784	0.410196	0.847660	0.197872	0.662389	0.722556
-0.146788	0.320134	0.802122	0.162597	0.955334	0.246777
0.221308	0.259073	0.709578	0.569871	0.679370	0.462281
-0.111455	0.258150	0.450784	-0.608902	0.706914	0.359876
-0.523075	0.195541	0.383443	-0.861816	0.194757	-0.468340
0.008604	0.254858	0.269555	-0.139107	0.946926	0.289792
-0.015733	0.084136	0.317906	-0.025258	0.340104	0.940049
-0.315621	0.244835	0.638095	-0.725993	0.682394	0.085283
0.115419	0.189778	0.016825	0.082660	0.896028	-0.436235
0.241822	0.209861	0.015662	0.731935	0.405392	-0.547657
0.125080	0.292797	0.456541	0.455789	0.821408	0.342849
0.159186	0.141993	0.176971	0.695749	0.668241	0.263413
0.277249	0.215863	0.533458	-0.716853	0.614117	-0.330126
-0.064894	0.128750	0.620314	-0.753387	0.057426	-0.655065
-0.118001	0.263558	0.396500	0.398796	0.626190	0.669961
0.077825	0.191352	0.148498	-0.237174	0.526622	-0.816344
-0.044273	0.243630	0.329512	-0.490708	0.868294	-0.072599
-0.042752	0.044949	0.478684	0.234292	0.674080	-0.700517
0.283004	0.061520	0.688163	0.021449	0.891041	0.453415
0.026484	0.202265	0.524986	0.348141	0.075593	-0.934389
-0.190591	0.104899	0.555736	-0.857150	0.432183	-0.280199
0.250743	0.374121	0.342202	0.026680	0.201296	0.979167
0.011306	0.211812	0.240028	-0.069646	0.285087	0.955968
-0.242940	0.132002	0.593014	-0.137525	0.812575	-0.566401
0.327790	0.266755	0.656904	0.891531	0.375902	-0.252725
0.091273	0.194841	0.375067	0.507190	0.853815	-0.117294
-0.042104	0.382715	0.517389	-0.879774	0.340257	-0.331998
-0.137431	0.218083	0.475882	0.281590	0.256112	0.924724
0.504615	0.090056	0.647251	0.896505	0.133524	0.422433
-0.247469	0.133117	0.196636	-0.953265	0.263537	-0.147762
0.283948	0.386730	0.231308	0.831095	0.348307	-0.433548
-0.228752	0.145735	0.913859	-0.643822	0.244122	0.725188
0.335715	0.395476	0.509812	0.646702	0.757419	0.089963
0.079527	0.314856	0.235675	-0.291398	0.136438	0.946822
-0.330955	0.534182	0.666686	-0.589913	0.731016	0.342955
-0.322674	0.544523	0.541575	-0.533800	0.837529	0.116631
-0.128911	0.134762	0.534554	-0.654017	0.669914	-0.351393
-0.045498	0.352816	0.220876	-0.055856	0.315422	0.947306
0.086466	0.250612	0.310322	0.535515	0.714114	0.450849
-0.222515	0.166428	0.076933	0.392533	0.792703	0.466411
0.078514	0.344758	0.615151	-0.878602	0.465329	-0.107369
0.526033	0.343290	0.058981	0.657576	0.453334	-0.601732
-0.117439	0.243098	0.071708	-0.256898	0.784672	0.564175
-0.008055	0.064711	0.333815	0.035996	0.362081	0.931451
-0.577189	0.315349	0.419605	-0.966896	0.243936	-0.074882
-0.109311	0.000955	0.408128	-0.146275	0.037881	-0.988518
-0.302448	0.227459	0.489324	-0.062495	0.985904	0.155203
-0.164261	0.337514	0.041613	-0.215177	0.452070	-0.865639
0.646847	0.195190	0.513665	0.931252	0.128687	0.340894
-0.574941	0.429465	0.097928	-0.933606	0.354101	0.054701
-0.359366	0.394608	0.015191	0.090972	0.819937	-0.565179
-0.513516	0.336159	0.253524	-0.758673	0.391277	0.520881
0.645831	0.156929	0.374285	0.976378	0.134717	-0.168933
0.297031	0.037922	0.844087	0.266795	0.563685	0.781716
-0.504299	0.092601	0.049679	-0.567401	0.094878	-0.817958
0.217926	0.598410	0.526830	0.336289	0.929674	0.150385
-0.183115	0.349365	0.405268	-0.936922	0.320232	0.140102
-0.079425	0.475489	0.609038	-0.213752	0.849646	-0.482091
-0.313559	0.223775	0.815585	-0.731879	0.570388	0.372841
0.099229	0.014138	0.351892	0.276652	0.224287	0.934430
0.119157	0.023003	0.291291	0.209295	0.109413	0.971712
-0.197935	0.185786	0.254054	-0.449206	0.277577	-0.849214
-0.083940	0.693323	0.150379	0.020155	0.935049	0.353946
0.293051	0.668976	0.470644	0.363515	0.834807	0.413465
0.075561	0.195877	0.028770	0.602799	0.623718	-0.497604
0.014361	0.214680	0.685541	-0.041041	0.893343	-0.447498
0.039681	0.232727	0.070715	0.148004	0.827450	-0.541683
0.163097	0.352721	0.305920	0.063120	0.910349	-0.408999
0.258063	0.140003	0.081519	0.803398	0.330415	0.495356
0.115422	0.204082	0.202643	0.146063	0.541206	0.828107
-0.349390	0.608234	0.352830	-0.888776	0.430000	0.158673
0.330237	0.195597	0.043364	0.649902	0.014695	-0.759876
0.516626	0.548128	0.248229	0.709465	0.639326	0.296515
0.304557	0.317665	0.149491	-0.108546	0.981919	-0.155089
-0.167723	0.136547	0.739123	0.285018	0.942913	0.172277
-0.102272	0.497530	0.798382	-0.391900	0.665562	0.635170
0.116397	0.392330	0.521466	0.824419	0.504542	-0.256459
0.009474	0.149818	0.020066	-0.274972	0.538000	-0.796835
-0.031264	0.470642	0.201682	0.470446	0.882429	0.000021
-0.090867	0.144440	0.291582	0.022682	0.491153	-0.870778
-0.406200	0.540873	0.139419	-0.640760	0.457056	-0.616868
0.050685	0.133452	0.258329	0.112889	0.338409	0.934203
0.065537	0.313141	0.248213	-0.030855	0.157149	0.987093
0.343257	0.014136	0.117614	-0.622665	0.013313	-0.782375
0.214744	0.061103	0.012393	0.457389	0.200078	-0.866466
0.303709	0.031526	0.639031	0.241318	0.942803	-0.229975
-0.122835	0.246466	0.511083	-0.439737	0.179477	0.880011
-0.315742	0.216452	0.430026	-0.400710	0.849986	0.341988
0.173296	0.331367	0.720735	0.047116	0.983282	-0.175887
-0.023386	0.456433	0.821648	-0.032653	0.835559	0.548429
0.032355	0.207071	0.279089	-0.681658	0.347263	0.644012
-0.128869	0.269588	0.337624	-0.307418	0.868708	0.388382
0.062847	0.322643	0.703845	-0.057313	0.978052	-0.200321
0.326919	0.559014	0.162376	0.217620	0.847764	-0.483672
-0.272326	0.075561	0.708667	-0.173129	0.121342	0.977396
-0.054869	0.078855	0.246485	-0.279727	0.604362	0.745989
-0.286718	0.364677	0.379235	0.213900	0.832755	-0.510653
-0.039516	0.180513	0.008451	-0.173500	0.663564	-0.727723
-0.285984	0.227500	0.100526	-0.706428	0.220099	-0.672693
0.035115	0.346699	0.163414	-0.791796	0.599192	0.118435
-0.213890	0.029971	0.551953	-0.935159	0.158362	-0.316858
-0.317424	0.106514	0.424128	0.656917	0.261591	-0.707128
-0.270006	0.376865	0.439583	0.598702	0.421009	0.681401
-0.166518	0.539476	0.105656	-0.570119	0.264849	-0.777701
0.409510	0.254306	0.654570	0.750626	0.286678	0.595295
-0.562719	0.426799	0.198735	-0.748122	0.456878	0.481222
-0.365346	0.204528	0.037448	-0.933740	0.313908	-0.172024
-0.067712	0.290688	0.358677	-0.233273	0.462014	0.855644
0.195465	0.274127	0.225139	0.888895	0.447647	-0.097352
-0.006854	0.117380	0.060193	-0.643268	0.541406	-0.541373
0.490192	0.349814	0.405559	0.779352	0.621730	0.077863
-0.333248	0.275672	0.023621	-0.870269	0.489133	-0.058148
-0.026775	0.258732	0.145350	-0.719893	0.693413	0.030518
-0.213155	0.096598	0.079510	-0.662584	0.348805	-0.662810
0.233331	0.233471	0.203939	-0.556387	0.818859	-0.141078
-0.177191	0.116439	0.645304	0.944875	0.319699	-0.070735
0.022824	0.213544	0.708802	0.490133	0.364993	0.791548
0.299096	0.485112	0.751325	0.300656	0.692022	0.656286
0.131987	0.084441	0.236250	0.400270	0.266090	0.876915
0.239471	0.142734	0.543861	0.868416	0.440694	0.227249
0.399303	0.189415	0.223456	0.211452	0.593944	0.776220
-0.049219	0.111590	0.227667	-0.432964	0.781831	0.448644
-0.055876	0.123635	0.458872	0.730142	0.432368	0.529104
-0.062065	0.281884	0.429778	-0.385318	0.499176	-0.776115
0.048794	0.110624	0.356886	0.860317	0.477102	0.179523
-0.040627	0.223689	0.790750	-0.187166	0.411010	0.892211
-0.059122	0.022997	0.604391	0.641045	0.095202	-0.761576
-0.149007	0.600643	0.098054	-0.307649	0.750325	-0.585120
-0.100875	0.286022	0.525556	-0.296311	0.901854	0.314418
0.262296	0.062441	0.234076	0.899612	0.086478	-0.428042
0.094862	0.230905	0.695684	0.139822	0.695649	0.704644
-0.180178	0.397667	0.636504	-0.623959	0.650378	-0.433226
-0.177699	0.056815	0.477572	-0.950808	0.308860	-0.023888
-0.007878	0.269821	0.628377	-0.108776	0.903848	-0.413796
-0.420063	0.263858	0.418254	-0.482047	0.802662	-0.351233
-0.171547	0.138566	0.211030	-0.643512	0.518300	0.563255
0.351867	0.438785	0.643366	0.426968	0.831632	0.355087
0.110524	0.268963	0.283637	0.460921	0.885556	0.057804
-0.066998	0.701528	0.438760	-0.366651	0.627021	0.687322
-0.003790	0.016535	0.871877	0.154617	0.229836	0.960869
0.110257	0.549981	0.006073	0.270459	0.685187	-0.676291
0.057847	0.073065	0.274243	-0.533388	0.240857	0.810855
-0.143539	0.284543	0.261990	-0.396267	0.857874	-0.327147
-0.045080	0.193200	0.835121	-0.271101	0.934625	0.230173
-0.119344	0.165911	0.094022	-0.805451	0.576985	-0.135412
-0.306792	0.041363	0.767230	-0.340509	0.797915	0.497378
-0.465132	0.123493	0.803363	-0.252382	0.344769	0.904123
-0.116455	0.012325	0.379603	-0.932121	0.044906	0.359351
-0.046803	0.146852	0.357589	-0.165936	0.740926	-0.650764
-0.119069	0.100784	0.002797	-0.619262	0.394647	-0.678799
0.189509	0.414926	0.368327	0.424884	0.897825	0.115690
0.190714	0.116520	0.159651	0.598936	0.341854	0.724163
0.152227	0.149803	0.334016	0.528818	0.440583	0.725423
-0.000803	0.235392	0.712392	0.116340	0.668536	0.734523
0.483444	0.212813	0.519249	0.970456	0.100092	-0.219538
0.079105	0.182743	0.295157	0.334346	0.752222	-0.567780
-0.357696	0.420677	0.551536	-0.944423	0.320554	-0.072869
0.060190	0.060235	0.764518	0.489989	0.447788	0.747928
-0.013778	0.375339	0.358761	0.073277	0.265416	-0.961345
0.250769	0.298762	0.485010	0.723628	0.535921	-0.434915
0.123925	0.028765	0.606138	0.425417	0.102613	-0.899161
-0.240958	0.173909	0.486479	-0.646981	0.762390	-0.013284
-0.009886	0.087132	0.689723	-0.114988	0.254326	0.960258
-0.160654	0.207844	0.432269	-0.300761	0.793164	-0.529559
0.211290	0.132959	0.148208	0.919655	0.385316	-0.075933
0.087613	0.052343	0.605582	0.448983	0.213231	-0.867725
0.094277	0.075565	0.248644	0.709838	0.432100	0.556256
-0.295198	0.424983	0.078252	-0.117797	0.983835	-0.134877
0.080368	0.155510	0.709971	0.260961	0.498529	0.826661
-0.224737	0.262267	0.248923	0.051159	0.544578	0.837148
0.411774	0.183893	0.722411	0.187708	0.089859	0.978106
0.288542	0.067444	0.514635	0.651462	0.183492	-0.736157
-0.041832	0.173721	0.169126	-0.584957	0.330137	0.740834
-0.162938	0.191176	0.396188	-0.263435	0.190412	0.945698
0.068528	0.011189	0.740315	0.687492	0.272072	0.673299
-0.317572	0.412868	0.332486	-0.232127	0.906137	-0.353599
-0.194258	0.699583	0.290154	0.316151	0.905608	0.282707
-0.090067	0.087153	0.179828	-0.334136	0.001469	0.942524
0.219192	0.047141	0.465751	0.517513	0.521952	-0.678046
-0.206618	0.230198	0.175556	-0.960532	0.241877	0.137381
-0.354127	0.219734	0.394086	-0.894357	0.384382	-0.228858
0.652055	0.201222	0.243189	0.836790	0.035302	-0.546385
0.273791	0.689559	0.347665	0.373544	0.927593	-0.006049
-0.068082	0.036163	0.261441	-0.345534	0.253065	0.903639
0.095211	0.197809	0.750420	0.272983	0.925274	0.263342
0.433465	0.291183	0.655878	0.813110	0.545502	-0.203173
-0.117888	0.360572	0.672223	-0.110208	0.992813	-0.046661
-0.312106	0.424559	0.620228	-0.719659	0.694213	0.012614
-0.387873	0.139364	0.356139	-0.891135	0.384796	-0.240438
-0.095546	0.259237	0.257307	-0.360974	0.930670	0.059593
-0.007022	0.103533	0.443864	-0.069175	0.730928	-0.678939
-0.500689	0.370561	0.437708	-0.836959	0.422271	-0.348120
0.117373	0.094003	0.910182	0.099126	0.059840	0.993274
0.089213	0.139993	0.289035	0.727659	0.182959	0.661089
-0.200452	0.213312	0.629038	0.320179	0.830560	0.455693
-0.486703	0.255120	0.670872	-0.240466	0.884326	0.400180
