0.208214	-0.052352	0.488775	0.027820	0.504289	-0.863087
0.095802	-0.041951	0.719229	0.930026	-0.312282	-0.193731
0.242465	0.144811	0.348197	0.852536	0.488493	0.185896
0.630257	0.310575	0.247274	0.884375	0.360789	-0.296163
-0.006932	0.066482	0.381849	0.249201	-0.955280	0.159184
-0.009928	0.134671	0.363574	-0.716973	0.257493	0.647801
-0.440502	0.290832	0.093041	-0.832941	-0.518512	-0.193273
0.004140	-0.190186	0.413749	0.051376	-0.998676	-0.002448
-0.219795	-0.040595	0.825513	-0.956485	-0.041125	0.288868
-0.158703	-0.119999	0.468374	0.088988	0.066642	-0.993801
-0.074814	0.063396	0.628974	-0.463376	0.534689	0.706676
0.140962	0.387492	0.447026	-0.256791	-0.738804	0.623079
0.407687	0.432362	0.031351	0.644028	0.382921	-0.662268
-0.286299	0.081052	0.236014	-0.888284	0.231777	-0.396525
0.121305	0.494534	0.141332	0.713379	0.545528	-0.439875
-0.531316	0.338575	0.144775	-0.893314	0.172733	0.414913
0.359338	0.020636	0.260473	-0.676100	-0.072286	0.733255
-0.216177	0.441933	0.321371	-0.504034	0.056915	-0.861806
-0.289513	-0.266561	0.866979	-0.073283	-0.143309	0.986961
-0.084504	-0.031637	0.596376	-0.198950	0.937578	-0.285249
-0.012741	-0.559639	0.372767	0.834315	-0.378496	-0.400823
0.076813	0.022292	0.132553	-0.662507	-0.637301	0.393614
-0.009477	0.063801	0.680386	0.010534	0.475716	0.879536
0.077769	-0.103910	0.245384	0.572550	-0.803290	0.164049
0.463285	-0.545779	0.526261	0.431057	-0.794534	0.427674
-0.030923	-0.174155	0.317080	0.222165	-0.877864	0.424261
-0.160582	-0.640418	0.460537	0.535771	-0.773037	0.339652
0.009509	0.331129	0.258175	0.368306	0.915633	0.161143
-0.202116	0.135329	0.594212	0.415764	0.305754	0.856537
0.377624	0.369773	0.057075	0.581882	-0.515047	-0.629396
-0.242166	0.657563	0.237425	-0.673083	0.719522	-0.171020
-0.087845	0.022631	0.272356	-0.964826	-0.134256	-0.226024
0.044677	0.306036	0.298605	0.896307	-0.160416	-0.413401
0.014311	0.191597	0.773645	0.327795	0.836405	0.439292
0.040053	-0.034449	0.247337	0.195055	-0.368031	0.909124
0.067226	0.248092	0.187916	0.056779	0.933710	0.353499
-0.414864	0.310074	0.587034	-0.047055	0.919595	0.390039
-0.203083	-0.025766	0.003899	-0.804838	0.047739	-0.591572
0.040730	0.046065	0.643017	0.044372	0.752464	0.657137
-0.318015	0.226683	0.677150	0.349290	0.546973	0.760800
0.178460	0.156241	0.373296	0.540980	0.668553	0.510272
0.052070	0.253864	0.222411	-0.019391	0.256633	0.966314
-0.155962	0.000040	0.328082	0.028259	-0.180876	0.983100
-0.068222	0.396436	0.566756	-0.358361	-0.039110	0.932764
0.509682	-0.516680	0.378884	0.189843	-0.956854	0.219979
0.053192	-0.061295	0.021995	0.240663	-0.607231	-0.757200
0.015659	-0.222051	0.567058	-0.524690	-0.113975	-0.843629
-0.177944	0.101628	0.253746	-0.866579	0.123055	0.483630
0.145226	-0.275560	0.402067	-0.337520	0.781607	-0.524568
0.691036	0.264126	0.104038	0.975297	0.219999	0.019915
0.009530	0.304805	0.248065	-0.212371	-0.956820	-0.198482
0.042273	-0.064287	0.660595	-0.577659	-0.732502	0.360208
-0.062267	-0.159260	0.444935	-0.288203	-0.794111	-0.535096
-0.130666	0.552158	0.408581	-0.194351	0.524789	-0.828748
-0.023510	-0.020480	0.047595	0.298865	-0.799126	0.521610
-0.175690	-0.097440	0.702424	-0.834295	-0.479201	-0.272613
-0.186006	0.317505	0.127084	0.810523	0.273279	-0.518046
-0.263604	-0.107477	0.260292	0.073583	-0.996023	0.050236
0.093647	-0.040601	0.961602	0.221537	-0.279507	0.934236
-0.024056	0.255005	0.847597	-0.024101	-0.250938	0.967703
0.237210	0.094818	0.458163	0.891910	0.021785	0.451688
0.177491	-0.108049	0.014128	0.814653	-0.503917	-0.287068
-0.483090	0.520325	0.329568	-0.990884	0.103650	0.086057
-0.413394	0.133292	0.492812	-0.479024	-0.005158	-0.877787
0.012774	-0.060626	0.540223	0.109151	-0.496493	-0.861151
0.204369	0.004330	0.699195	0.847601	0.060865	0.527131
0.226496	0.338008	0.498831	0.007200	0.541892	0.840417
-0.212433	0.208185	0.612704	0.008635	0.939756	0.341736
-0.293370	-0.078361	0.490017	-0.944418	0.124668	-0.304191
0.067765	0.053861	0.602631	-0.127147	0.423886	-0.896747
0.444431	-0.301708	0.662204	-0.115063	-0.344427	0.931735
-0.462544	0.044587	0.064987	-0.689830	0.055354	-0.721853
0.396456	-0.006575	0.827678	0.305778	0.003284	0.952097
0.085911	0.205861	0.347997	0.901107	0.433593	-0.001902
-0.750299	0.042369	0.363113	-0.951396	-0.213733	0.221728
-0.137475	-0.012630	0.068712	-0.992742	-0.103323	-0.061543
0.193338	0.276500	0.102847	0.195642	-0.896907	0.396588
-0.033741	0.202831	0.595772	-0.216673	0.818420	-0.532204
-0.371169	0.574866	0.054560	-0.834889	0.303055	-0.459475
0.353463	0.018403	0.548844	0.460191	0.011630	-0.887744
-0.159172	0.134973	0.766345	0.176439	0.703820	0.688119
-0.327640	-0.025311	0.492407	-0.177192	-0.979717	-0.093578
-0.018523	-0.083396	0.321649	0.558659	-0.659794	0.502566
0.272426	-0.069275	0.305431	0.214731	-0.524302	0.824013
0.043775	-0.184653	0.901829	0.501924	-0.565363	0.654550
-0.114666	-0.020134	0.076363	0.476154	-0.385300	-0.790457
-0.139389	-0.082983	0.812927	-0.595164	-0.484973	0.640766
-0.002567	-0.033881	0.345683	0.125962	-0.646464	0.752474
0.496835	0.143696	0.506898	0.966801	0.252736	0.037682
0.138579	0.034075	0.979987	0.323207	0.069592	0.943766
-0.027192	0.117273	0.276527	-0.792649	0.518149	0.321293
-0.083529	0.199211	0.164119	0.381478	-0.873933	-0.301191
-0.183361	0.109880	0.219703	0.919736	-0.137386	0.367710
-0.120720	0.184570	0.343471	-0.520657	0.457002	0.721155
0.460641	0.376139	0.303407	0.324183	0.520754	-0.789760
0.378975	0.432719	0.508210	0.857710	0.177012	0.482701
0.067973	-0.158613	0.647777	-0.936170	-0.110770	-0.333640
-0.398824	-0.026133	0.225833	0.866038	-0.458161	0.200168
0.297761	-0.175753	0.549531	0.535255	-0.523133	-0.663199
0.587227	0.076855	0.618973	0.921806	0.081269	0.379037
-0.175900	0.285225	0.367408	0.547489	-0.820656	-0.163646
-0.187084	0.081598	0.397931	-0.272240	-0.158091	0.949154
-0.023112	-0.037740	0.498849	-0.311612	-0.686015	-0.657481
-0.005180	0.210979	0.029471	0.057754	0.765524	-0.640811
-0.257477	0.397959	0.235862	-0.466719	0.784154	-0.408993
0.046301	-0.054712	0.151123	0.089973	-0.746284	-0.659519
0.015104	-0.072898	0.159252	-0.613365	-0.449452	0.649444
0.051112	-0.134970	0.678967	0.540788	0.835777	0.094999
0.012022	0.598082	0.664506	0.353294	0.493365	0.794842
-0.292410	-0.163574	0.548520	-0.802481	0.304093	-0.513372
0.012282	0.138863	0.267280	-0.252448	0.475076	0.842955
0.074730	-0.163482	0.237483	0.363172	-0.792532	0.489896
0.034097	0.373185	0.380414	-0.090871	0.259656	0.961416
0.424407	0.193831	0.674570	0.057694	-0.500734	0.863676
-0.071670	0.128182	0.267866	-0.291964	-0.564516	0.772062
0.251127	0.280398	0.742292	0.337245	-0.229419	0.913035
0.003021	0.696199	0.001827	-0.433023	0.660958	-0.612882
-0.051630	0.423884	0.110628	-0.761862	0.234864	0.603659
0.244088	-0.203115	0.486792	0.050998	-0.719716	-0.692393
-0.163288	-0.001267	0.015750	-0.168570	-0.952122	-0.255045
-0.021758	0.134183	0.099588	0.832709	0.508353	0.219483
0.547665	0.468765	0.199239	0.747200	0.632961	-0.202616
-0.011764	0.163336	0.635231	-0.942773	-0.273193	-0.191167
0.028149	0.204658	0.334696	0.395714	0.160574	-0.904227
-0.439686	0.306488	0.735455	-0.761167	0.602567	0.239870
0.214616	0.001949	0.231477	-0.884485	-0.377361	-0.274382
-0.143090	0.028416	0.734169	-0.386885	-0.393831	0.833797
0.071358	-0.054045	0.990441	0.195654	-0.161243	0.967326
-0.149041	-0.116767	0.318964	-0.611225	-0.308472	0.728869
-0.170619	0.127819	0.641181	0.679635	-0.727361	0.095094
-0.103048	0.131841	0.777266	-0.685206	0.728066	0.020343
-0.062128	0.338519	0.244306	-0.685318	-0.595346	0.419408
0.142534	0.147608	0.766111	0.713562	0.694431	-0.092707
0.181220	0.073099	0.202276	0.425485	0.144175	0.893407
0.087021	0.025544	0.621385	0.241494	0.548087	-0.800801
-0.068440	0.658257	0.486239	-0.332688	0.940717	0.066105
-0.410833	0.441989	0.537831	-0.316334	0.552826	0.770919
0.138346	0.143241	0.454348	0.938692	-0.337847	0.068682
-0.097745	0.129384	0.504786	-0.337635	0.716073	-0.610936
0.152429	-0.212519	0.503851	-0.703441	-0.231055	-0.672149
-0.274974	0.079448	0.225586	-0.440587	-0.619840	0.649370
-0.028883	-0.220700	0.691133	0.847444	-0.487267	-0.210737
0.061069	-0.254503	0.480878	-0.156719	0.528720	-0.834203
-0.091757	0.032488	0.674013	-0.557510	0.010299	0.830106
-0.129496	0.210048	0.431141	-0.505488	0.821233	0.264687
0.109079	0.261748	0.451571	-0.546217	-0.414471	-0.727915
0.205416	0.228166	0.645040	0.981045	-0.111664	-0.158369
-0.048613	0.207763	0.450997	0.340770	-0.922930	-0.179100
-0.079762	0.137396	0.330580	-0.399853	0.701933	-0.589412
-0.174430	0.150335	0.091437	0.939359	-0.056319	-0.338279
-0.170535	-0.292976	0.400468	0.271393	0.953819	-0.128748
-0.077581	-0.110002	0.621955	-0.438075	-0.576279	-0.689922
-0.122362	-0.186500	0.057415	-0.311389	-0.732149	-0.605801
-0.112280	0.192867	0.514519	0.674719	-0.470133	-0.568972
-0.173119	0.655049	0.401084	-0.116125	0.991810	-0.053180
-0.276975	0.347940	0.738121	-0.591654	0.804797	0.047403
0.296006	0.607814	0.369906	0.519496	0.684864	-0.510964
-0.013507	-0.093655	0.577740	0.141794	0.331708	-0.932665
0.449444	0.379258	0.485217	0.826745	0.546386	0.133996
-0.173736	0.069158	0.565058	-0.845525	0.299314	0.442151
0.592341	-0.397691	0.153210	0.317142	-0.765714	-0.559556
-0.524725	0.279448	0.127732	-0.769042	-0.639175	0.005414
-0.508908	0.028085	0.267805	-0.822573	-0.565292	0.061796
0.000008	-0.027689	0.714263	0.878083	-0.447829	-0.168583
-0.077205	-0.012630	0.260723	-0.204927	-0.599859	0.773418
0.340674	-0.223976	0.766697	0.273347	-0.180294	0.944868
-0.141062	-0.005533	0.297217	-0.328877	-0.768754	0.548505
-0.029541	-0.044078	0.448353	0.475616	-0.832449	-0.284284
-0.262072	0.061228	0.165726	-0.914047	0.260289	-0.311075
0.033284	-0.108374	0.962253	0.190930	-0.533294	0.824101
0.108237	0.088705	0.215000	0.024301	0.167417	0.985587
-0.390610	0.110107	0.689787	-0.392834	0.918741	-0.039966
-0.562328	0.323120	0.098277	-0.854701	0.290197	-0.430432
0.179018	-0.095763	0.427776	0.886612	-0.422968	-0.187132
0.087237	0.081027	0.258482	0.592046	0.561874	0.577736
-0.033102	-0.304036	0.645795	0.822101	-0.441306	0.359720
0.211240	0.085717	0.059171	0.938383	0.298376	-0.174383
0.015654	-0.030164	0.986893	-0.029806	-0.116332	0.992763
0.344293	-0.143950	0.538629	-0.507497	-0.840110	-0.191471
-0.382789	0.323993	0.138692	-0.376884	0.864910	-0.331495
-0.137421	-0.005278	0.467989	-0.716840	-0.494105	0.491936
0.069011	-0.152574	0.930583	0.404473	-0.626709	0.666061
0.163202	0.007559	0.320977	0.981029	-0.181529	-0.068040
-0.043616	0.076759	0.580245	-0.030943	-0.708592	-0.704940
0.194080	-0.032497	0.763915	0.830948	0.263671	0.489902
-0.435096	0.060092	0.459066	-0.567806	0.409854	-0.713874
-0.096716	0.072968	0.274096	0.010776	-0.155061	0.987846
-0.334711	-0.180530	0.339299	0.383160	0.815321	-0.434097
-0.231031	0.020440	0.338926	-0.996500	-0.070247	-0.045304
0.079878	0.284955	0.490464	0.503847	0.529314	0.682616
-0.039449	-0.015038	0.456473	-0.052617	-0.301685	-0.951954
-0.127254	0.083012	0.461973	-0.112569	-0.833060	0.541608
-0.279409	0.140071	0.066500	-0.969351	-0.066924	0.236391
0.023467	0.185920	0.743651	-0.014994	0.314146	0.949256
-0.069287	-0.238324	0.724570	-0.094570	-0.995221	-0.024340
-0.040410	0.418729	0.759737	-0.425507	0.451206	0.784447
0.057569	-0.121747	0.461304	0.454103	-0.214749	-0.864681
-0.587122	0.037585	0.235193	-0.745719	0.067238	-0.662860
0.523357	0.064815	0.606854	0.992262	-0.076351	0.097911
-0.016709	0.167118	0.766251	0.478497	0.874270	-0.081803
-0.128794	0.089352	0.319746	0.330503	-0.142550	0.932978
-0.234234	0.040209	0.378070	0.883046	0.110406	0.456114
0.205645	0.347673	0.417183	0.123574	-0.080583	0.989058
-0.128123	0.217373	0.341488	-0.417023	0.793810	0.442670
-0.030247	0.457162	0.122696	-0.390502	0.347834	-0.852361
0.033371	0.569050	0.349559	-0.405509	0.012036	0.914012
-0.201077	0.166878	0.914564	-0.534169	0.458606	0.710172
0.217087	0.115810	0.513865	0.038466	0.199807	0.979080
-0.303800	-0.064304	0.361569	0.860246	-0.509159	-0.027086
0.078482	0.538977	0.337232	0.050959	0.942413	-0.330546
-0.264236	-0.000371	0.249833	-0.944844	-0.040541	0.325001
-0.004089	-0.198840	0.741362	-0.162752	-0.915643	0.367572
-0.312306	-0.453636	0.588950	-0.317736	-0.904716	0.283784
0.235805	-0.111513	0.679334	0.800439	-0.589523	-0.108442
-0.485267	0.432194	0.575365	-0.180810	0.743379	0.643969
0.142776	-0.089913	0.302457	0.364861	-0.508464	0.779962
0.006613	0.180799	0.243694	0.027951	0.191914	0.981014
0.079590	-0.010706	0.000353	0.779279	-0.085371	-0.620835
0.200596	-0.161838	0.170963	0.385659	-0.885619	-0.258741
0.218312	-0.143358	0.820126	0.793986	0.319611	0.517141
0.081772	-0.082567	0.312092	0.399012	-0.877063	0.267490
0.194611	0.027160	0.319932	0.501111	-0.243696	0.830361
0.145951	0.199739	0.338920	-0.570663	0.580692	0.580638
0.178085	0.363907	0.299362	0.684522	0.661075	0.307263
0.110008	0.185394	0.166105	0.076648	0.058257	-0.995355
-0.061939	0.478515	0.347809	-0.475041	0.862350	-0.175180
0.157235	0.139538	0.189076	0.655031	0.614405	0.439820
-0.151165	-0.143618	0.334296	-0.401863	-0.844530	0.353942
0.347698	0.111510	0.390446	0.682171	-0.437435	-0.585913
-0.110614	-0.231234	0.941958	0.162958	-0.393653	0.904700
-0.025205	-0.041872	0.335486	-0.388921	-0.826616	0.406750
0.055627	0.066754	0.855878	0.400471	0.525626	0.750560
0.058628	-0.484875	0.561877	-0.903275	-0.200628	0.379265
0.103810	-0.152527	0.488376	0.487416	-0.628153	-0.606506
0.366697	0.128292	0.046198	0.724604	-0.686222	0.063634
-0.132466	0.494212	0.574433	-0.299977	0.953587	0.026192
0.069201	0.124736	0.567082	-0.399839	0.442775	-0.802545
0.061873	-0.015037	0.296202	0.537047	-0.284971	-0.793960
-0.069333	0.379066	0.098850	-0.033881	0.900208	-0.434141
-0.049127	-0.118834	0.655160	-0.049139	-0.644835	0.762740
-0.062058	0.056560	0.713892	-0.105391	-0.993740	-0.037051
0.317354	-0.615448	0.228125	0.491558	-0.552135	-0.673437
-0.371623	-0.055915	0.013667	-0.430141	-0.677487	0.596649
-0.176435	-0.154009	0.326552	-0.152657	-0.791021	0.592436
0.218076	0.167913	0.917849	0.487375	0.396265	0.778100
0.096440	0.213186	0.069821	0.260045	0.774287	0.576937
0.613282	0.002114	0.364243	0.352506	-0.057449	0.934044
-0.256843	0.241412	0.153676	0.577043	-0.604276	0.549429
0.043785	0.514413	0.299869	-0.224058	0.465747	-0.856083
-0.569362	-0.152685	0.211308	0.020346	-0.997546	0.066998
0.420916	0.310000	0.411446	0.373757	0.264678	0.888961
0.054736	0.262249	0.076927	0.162861	0.741643	-0.650724
-0.078200	-0.092306	0.800893	0.441983	-0.810914	0.383496
0.058664	0.189996	0.291447	0.164384	-0.609626	0.775457
-0.096434	0.043055	0.468698	-0.475474	0.386807	-0.790130
0.030272	0.010281	0.159896	0.443388	-0.601860	-0.664207
-0.154383	-0.001585	0.784416	-0.600207	0.780292	0.175770
-0.332834	0.138498	0.416399	0.053086	0.348553	-0.935784
0.190281	-0.239833	0.492788	0.709678	-0.577493	-0.403557
-0.249929	0.212834	0.071941	0.987965	-0.132128	0.080414
0.373330	0.081278	0.420927	-0.087559	-0.184798	0.978868
0.003630	0.216288	0.437453	0.057558	0.998306	-0.008518
0.215781	-0.099405	0.918558	0.514707	0.111655	0.850064
-0.023064	0.183984	0.103379	-0.858944	0.308860	-0.408438
-0.050517	0.244703	0.100198	-0.008075	0.922981	-0.384760
0.135364	0.682768	0.476006	-0.007763	0.976202	0.216723
0.144836	-0.120681	0.341378	-0.047232	-0.393524	-0.918100
-0.033927	0.030989	0.872536	-0.287983	0.268990	0.919081
-0.042653	0.544712	0.589265	-0.104089	0.952265	-0.286978
0.493259	-0.125602	0.667426	0.492955	0.488645	0.719876
-0.115841	0.027247	0.319746	-0.473826	0.230642	0.849878
-0.165443	0.241018	0.225318	-0.368078	0.833556	-0.411950
0.272478	0.064984	0.538464	-0.133665	-0.022889	0.990762
-0.114442	0.193830	0.519294	0.728180	-0.638534	0.249054
0.415908	-0.123191	0.513346	0.520852	-0.811073	-0.266220
0.073037	0.024884	0.480632	0.943345	-0.301053	0.139523
-0.075080	-0.047965	0.381672	-0.481198	-0.876352	-0.021344
0.226592	-0.191623	0.645021	0.732712	-0.601546	0.318238
-0.136695	-0.014256	0.310053	0.498178	-0.202791	0.843027
-0.045445	0.088201	0.586898	-0.862641	0.256864	0.435742
0.129135	0.013681	0.389652	0.156524	-0.682828	0.713615
-0.080255	-0.193071	0.677379	0.728297	-0.675451	-0.115540
-0.087659	0.270500	0.122577	0.054260	0.944787	-0.323161
0.231878	-0.008480	0.354430	-0.868989	-0.206681	0.449601
0.095365	0.047555	0.273970	0.532314	-0.162322	0.830839
-0.296184	0.025519	0.217824	0.481386	-0.602339	0.636754
0.122334	0.073176	0.267674	0.947983	0.169746	0.269287
-0.131572	0.089329	0.536583	0.648913	0.070945	-0.757548
-0.037549	-0.135401	0.034451	-0.510522	-0.827470	0.233798
-0.376300	0.542545	0.071216	-0.809904	0.442523	-0.385005
-0.472753	0.078399	0.703641	-0.402959	0.398326	0.823991
-0.103374	-0.130160	0.592373	-0.132409	-0.978209	0.159924
0.088139	0.261979	0.162701	0.764753	0.102041	-0.636192
-0.101491	-0.131325	0.620120	-0.485930	-0.569548	0.662938
-0.270485	0.546792	0.237324	-0.817546	0.142749	-0.557890
0.264781	-0.004442	0.842836	0.387700	0.127458	0.912931
-0.027572	-0.005922	0.594253	-0.260308	-0.321700	-0.910356
-0.434260	0.053330	0.115059	-0.929573	-0.120893	0.348251
0.068963	-0.194361	0.243567	0.029858	-0.944691	0.326600
0.321101	0.087189	0.376204	0.875901	0.410463	0.253608
-0.034924	-0.010071	0.380194	-0.632171	-0.247905	0.734100
0.115784	-0.053135	0.638467	0.827848	-0.388135	-0.404992
-0.040402	0.197282	0.439371	0.014237	0.733052	0.680024
-0.222142	0.735845	0.292043	-0.204305	0.974211	-0.095767
0.064005	0.356227	0.272736	-0.481955	-0.826099	0.292027
0.088998	0.208754	0.611323	-0.432973	0.846945	-0.308574
0.098671	0.163146	0.185092	0.189233	0.657327	-0.729460
-0.143252	-0.087274	0.651856	0.451775	-0.887186	0.093810
-0.115914	0.047510	0.232462	-0.721977	0.359495	0.591196
0.373546	0.593359	0.468962	0.533020	0.745321	0.400484
0.310537	-0.182500	0.400744	-0.738462	-0.318405	-0.594385
-0.216583	0.466056	0.148431	0.053198	-0.022581	-0.998329
-0.362556	-0.098442	0.368443	0.621083	-0.317085	-0.716738
-0.108397	-0.047928	0.525814	0.537551	-0.504119	0.675946
0.163614	0.155526	0.200749	0.632281	0.604046	0.485128
0.232274	0.303334	0.178118	-0.240278	-0.383842	0.891589
0.090584	0.024741	0.932303	-0.200478	0.297971	0.933285
0.231482	0.073118	0.871690	0.881632	0.272708	0.385170
-0.144635	0.206742	0.139067	-0.525729	0.850581	0.011025
-0.417646	-0.294826	0.543805	-0.510761	0.637183	0.577166
0.237674	-0.176406	0.446336	0.720586	-0.499817	-0.480562
0.015925	0.135937	0.566001	0.238067	-0.939864	-0.244909
-0.207226	0.277743	0.162263	-0.629836	0.769048	-0.108956
0.095723	-0.639155	0.609553	-0.189254	-0.647813	0.737917
-0.186792	-0.025615	0.809589	-0.756965	-0.212847	0.617819
0.051859	0.577939	0.346773	0.797489	0.600502	-0.058381
0.090651	0.250517	0.094571	0.108675	0.256241	0.960484
0.431236	0.113989	0.045060	0.839542	0.406539	0.360409
-0.028274	0.064390	0.424138	-0.161106	-0.979726	0.119086
-0.035237	0.254328	0.370593	-0.114628	0.974837	0.191188
0.019140	-0.094074	0.599792	0.043402	-0.350196	-0.935670
-0.005997	0.614337	0.305080	0.765280	0.464120	-0.446026
-0.124235	0.046335	0.344877	0.688040	-0.412345	0.597138
0.009060	0.367732	0.430615	-0.733424	0.555985	-0.391114
0.150872	0.016513	0.189676	0.610758	-0.406044	0.679781
0.076589	-0.182372	0.427653	0.454187	-0.436645	-0.776567
0.156728	0.650296	0.453415	0.321324	0.932937	0.162417
-0.090389	0.470856	0.633181	-0.052699	0.946961	0.316998
-0.052529	0.173153	0.455763	0.520779	0.581447	-0.625067
-0.356760	0.002892	0.801548	-0.051339	0.236380	0.970304
0.084260	0.052547	0.802521	0.418406	0.471459	0.776314
0.121285	0.145979	0.254677	0.943140	0.322932	-0.078751
-0.025355	-0.062019	0.896575	-0.694285	-0.248098	0.675585
-0.087533	-0.123259	0.504311	-0.488023	-0.682166	-0.544503
-0.040261	-0.012596	0.363302	0.032493	-0.203023	0.978635
0.151879	0.074710	0.844957	0.848995	0.406393	0.337715
-0.429900	-0.080662	0.656807	0.307292	0.351372	0.884369
0.543112	0.117215	0.228039	0.257597	-0.910850	-0.322485
-0.070356	0.373139	0.035815	-0.164588	0.458868	-0.873127
0.249990	0.564518	0.253222	0.103694	0.503260	-0.857891
-0.036214	-0.099528	0.451327	-0.374102	-0.634174	-0.676661
0.626072	0.332693	0.439475	0.876978	0.469713	0.101388
0.096886	0.058062	0.203775	0.116585	0.136995	0.983687
-0.411776	0.024601	0.401089	-0.995345	0.019216	0.094439
0.119710	-0.042781	0.577896	0.332063	-0.057155	-0.941524
0.050733	0.146780	0.178304	-0.407437	0.602852	0.685978
-0.039217	0.064133	0.261608	-0.674303	-0.596912	-0.434755
0.207194	0.174419	0.505211	0.875648	0.322948	0.359090
-0.149673	0.046215	0.023150	0.537517	-0.645856	0.542168
-0.389750	0.518250	0.553369	0.058681	0.915017	0.399126
0.132549	0.327722	0.319246	0.459792	0.875273	-0.149963
0.099541	-0.175733	0.773931	0.269302	0.352193	0.896346
0.020391	0.270345	0.344712	-0.062882	-0.850152	0.522768
0.149621	0.123024	0.243503	0.228859	-0.226470	0.946750
-0.087049	0.167626	0.127956	-0.451619	0.892038	-0.017580
-0.333423	-0.056685	0.354510	0.864217	-0.379941	0.329809
-0.270908	0.022165	0.119614	-0.688875	-0.198345	0.697216
0.218043	0.022990	0.480060	0.744848	0.184406	-0.641245
-0.061534	0.488072	0.319197	0.484954	0.778605	-0.398237
-0.071068	-0.130222	0.449453	-0.235906	-0.434376	-0.869290
-0.020053	0.069024	0.433968	0.722289	-0.057202	0.689222
0.020644	0.413485	0.505871	-0.411527	0.683578	-0.602799
-0.006903	-0.126403	0.959160	0.117461	-0.046813	0.991974
-0.050868	-0.106877	0.193147	-0.303265	-0.515791	0.801243
-0.146482	0.006871	0.968286	0.058126	0.254282	0.965382
0.100559	-0.139390	0.347782	0.285079	-0.957136	-0.051189
0.074192	0.303268	0.042036	-0.653875	0.729598	-0.200334
-0.118218	0.014590	0.424549	0.492017	-0.866466	0.084593
0.258757	0.031519	0.398204	0.957868	0.142195	0.249540
0.098911	-0.170718	0.454183	0.505344	-0.788797	-0.349895
0.031187	0.018172	0.750085	0.498959	0.100538	0.860774
-0.161181	0.167209	0.431206	-0.309955	-0.547552	0.777248
-0.084313	0.026879	0.482484	-0.761906	-0.170421	-0.624865
-0.095062	-0.136724	0.477756	-0.448927	-0.654260	-0.608612
0.226239	-0.017235	0.870188	0.226823	-0.505605	0.832415
0.053430	-0.119869	0.380636	0.432334	-0.897502	-0.087046
-0.050683	-0.108291	0.275259	-0.456318	-0.862268	0.219701
0.194828	-0.261033	0.361701	-0.384817	0.495240	-0.778879
-0.029739	-0.320163	0.354584	-0.190832	0.287115	-0.938695
0.012108	0.167842	0.164689	0.059117	0.819798	0.569593
0.355099	-0.219911	0.710658	0.093235	-0.793616	0.601233
0.183884	0.048799	0.654280	-0.522085	-0.744937	0.415325
0.080900	0.098945	0.300966	0.431299	0.174824	0.885109
-0.004278	0.154917	0.578479	-0.203448	0.575211	0.792301
0.371799	0.069232	0.330887	0.986386	0.067800	-0.149822
0.422360	-0.219055	0.712645	0.362837	-0.368129	0.856055
0.089529	0.155737	0.009709	-0.137964	0.523993	-0.840475
-0.114389	0.077297	0.922190	0.241503	-0.357990	0.901953
0.361387	0.175452	0.642687	0.948846	-0.302504	0.090462
0.585012	0.238695	0.488760	0.801862	0.566160	0.191001
0.024738	-0.049923	0.503898	-0.327456	-0.669799	-0.666439
0.048145	0.516366	0.383970	-0.622242	0.421534	-0.659639
-0.066592	0.067520	0.340197	0.120842	-0.409197	0.904408
-0.122014	-0.042279	0.596288	-0.900128	-0.082174	0.427804
0.015227	0.357704	0.525245	0.085640	0.737707	0.669667
0.239141	0.217592	0.427720	-0.181984	-0.862942	0.471394
-0.468728	-0.090179	0.801165	-0.562313	-0.294054	0.772875
-0.240536	-0.109024	0.682528	-0.366429	-0.892410	0.263312
0.133782	-0.045313	0.536062	0.215050	-0.093734	-0.972094
-0.244098	0.118431	0.580932	-0.333640	0.326701	-0.884280
0.242034	0.245369	0.705163	-0.635989	0.340008	0.692757
-0.276509	0.132013	0.676343	-0.774594	-0.583605	0.243738
-0.046561	0.098901	0.201848	0.223733	0.222455	0.948924
-0.163940	0.115625	0.175878	-0.682458	0.284374	-0.673337
-0.163587	0.087357	0.901678	-0.440224	0.218912	0.870793
0.152077	0.064672	0.550842	-0.508910	-0.284998	-0.812273
-0.207597	-0.024699	0.076037	-0.735201	-0.626677	-0.258371
0.146114	-0.390146	0.737864	-0.321942	-0.674485	0.664397
0.111991	0.070092	0.740862	0.179316	0.877055	0.445669
0.022567	-0.202721	0.588920	0.066340	-0.986691	-0.148461
-0.084921	0.008653	0.372348	-0.310792	-0.448893	0.837797
0.018476	0.085882	0.793104	-0.435304	0.071336	0.897453
0.040012	-0.183754	0.786134	0.244339	0.472545	0.846759
-0.252430	0.105239	0.134980	0.091833	-0.962491	-0.255300
0.182156	0.065167	0.244447	0.754815	0.105691	0.647367
0.264473	0.105681	0.377584	0.942915	0.013102	-0.332777
-0.351989	-0.208289	0.723223	0.060103	-0.503850	0.861697
-0.140207	0.195514	0.950341	-0.341373	0.013593	0.939830
-0.575504	-0.131366	0.688114	-0.840139	0.255808	0.478255
-0.123546	0.114145	0.591446	-0.581879	0.614100	-0.533195
-0.032337	0.174847	0.176020	-0.544102	0.724682	0.422835
-0.279423	0.204594	0.257446	0.287549	0.773477	0.564845
0.141710	-0.096673	0.384964	0.764509	-0.599868	-0.235977
0.256897	0.041449	0.256297	0.952800	-0.105549	-0.284660
0.164132	-0.350105	0.805853	0.687790	-0.264778	0.675897
-0.133800	0.118227	0.970247	-0.017561	-0.046237	0.998776
-0.008822	-0.082416	0.256414	-0.016965	-0.422522	-0.906194
0.117357	-0.102107	0.263197	0.569250	-0.505596	0.648326
-0.102530	-0.149652	0.063765	-0.707643	-0.638313	-0.302981
0.183034	-0.074160	0.437905	0.801204	-0.441147	-0.404305
0.116850	0.301691	0.490328	0.495665	0.778601	0.384833
0.086713	0.127312	0.341725	0.778954	0.569630	0.262205
-0.469761	-0.067391	0.084196	-0.578685	-0.804367	0.134602
-0.569804	0.266684	0.026327	-0.841290	-0.202082	-0.501391
0.148520	-0.038786	0.256152	0.725405	-0.185152	0.662953
0.574537	0.378688	0.232557	0.779168	0.625791	0.035813
-0.158604	0.272283	0.364949	-0.652845	0.756610	0.036535
-0.204243	0.018400	0.777397	-0.137899	-0.140907	0.980372
-0.033347	0.006361	0.882477	-0.134802	0.196803	0.971132
-0.189470	0.343214	0.547144	-0.600305	0.770221	-0.215392
-0.187454	0.103451	0.766529	0.011745	0.154652	0.987899
0.269085	0.342025	0.354423	0.943566	-0.279828	0.177143
-0.182672	0.117186	0.206456	0.100023	-0.089006	0.990996
0.058892	-0.241797	0.699179	-0.518790	-0.850182	-0.089701
-0.077594	0.140832	0.221244	-0.307109	0.567275	0.764122
0.051519	-0.290476	0.416453	0.303602	0.437396	-0.846469
-0.323233	0.005809	0.685956	-0.902406	-0.384014	0.195438
-0.106347	-0.522795	0.405307	0.616634	-0.499599	-0.608410
0.085677	-0.299418	0.863977	-0.022956	-0.875930	0.481891
0.104527	0.143753	0.423187	0.378746	-0.925496	0.002802
0.336930	0.274066	0.267923	-0.643410	0.334141	0.688748
0.149155	0.161905	0.554367	0.244785	0.401885	0.882366
0.669199	0.386737	0.307213	0.785152	0.619151	-0.013681
-0.512979	-0.027395	0.686629	-0.635174	-0.249212	0.731059
-0.077027	0.053812	0.323200	0.684293	-0.474575	0.553644
0.022726	-0.188816	0.064782	0.011465	-0.921796	-0.387506
-0.004634	-0.049592	0.300819	-0.406198	-0.855246	-0.321805
-0.023923	0.127621	0.231330	0.583990	0.322070	0.745135
-0.348765	0.003601	0.014219	-0.807945	-0.087081	-0.582788
-0.282866	0.083476	0.324716	-0.985778	-0.158614	0.055529
-0.299166	0.139560	0.023666	-0.569862	0.176789	-0.802498
0.170937	0.584197	0.351541	0.995203	0.085482	0.047577
0.067070	0.036368	0.593610	0.427722	-0.228982	-0.874426
-0.344245	-0.047625	0.476397	-0.569889	-0.370685	-0.733362
-0.070545	0.275774	0.151575	-0.143443	0.942189	-0.302826
-0.178057	0.102961	0.545625	-0.798993	0.485533	0.354777
0.244539	-0.390515	0.396981	0.660212	0.365141	-0.656347
-0.352873	-0.277782	0.561844	-0.485450	-0.847717	-0.213807
-0.194580	0.035898	0.922809	-0.660799	0.163827	0.732465
0.211860	0.095356	0.581457	-0.040994	-0.998989	-0.018475
0.020027	0.047423	0.365780	-0.515525	-0.250247	0.819519
0.164490	-0.125721	0.759341	0.108021	-0.076774	0.991180
-0.231699	-0.431386	0.551974	-0.767945	-0.445906	-0.459812
0.015341	0.205340	0.291604	-0.872778	-0.285724	0.395753
0.179530	0.073907	0.461068	0.664849	0.262807	-0.699220
0.185371	0.175006	0.181783	0.445186	0.497955	0.744211
-0.193306	0.019098	0.027985	-0.505277	-0.082928	-0.858963
-0.062070	0.204175	0.245813	0.144789	0.983838	0.105353
-0.147749	-0.052900	0.062930	-0.871107	-0.056055	-0.487884
0.089891	0.245081	0.099343	0.656931	0.173394	-0.733741
-0.323585	-0.040536	0.427474	0.527561	0.503134	-0.684496
0.144396	0.169241	0.365634	0.623507	0.753599	-0.208151
0.231792	-0.023249	0.538481	0.955832	0.199610	-0.215732
-0.173872	0.161942	0.152927	-0.773687	0.618985	0.135152
0.151259	0.254540	0.062280	0.464124	0.505697	-0.727227
-0.313501	0.288369	0.280115	0.168558	0.160875	0.972475
-0.079190	0.150051	0.211789	-0.737555	0.672364	0.062768
-0.143255	0.439589	0.147637	0.050675	0.306251	-0.950601
0.135734	-0.091809	0.406229	0.040370	-0.603088	0.796653
-0.121187	0.184340	0.242127	-0.636970	0.646793	0.419438
-0.204430	-0.085141	0.485298	0.123177	0.060577	-0.990534
0.266814	0.028622	0.369138	0.491730	-0.130143	-0.860967
-0.047814	-0.156137	0.468747	0.131737	-0.304948	-0.943214
-0.213006	0.095844	0.068314	-0.668779	0.395817	-0.629336
-0.139419	0.009088	0.337753	-0.407690	-0.198480	0.891288
0.397033	-0.138327	0.802501	0.322412	-0.112147	0.939933
0.026254	-0.068161	0.410092	-0.051525	-0.980746	0.188366
-0.235089	0.012301	0.583472	-0.291451	0.352249	-0.889369
0.359330	0.104986	0.355613	-0.552186	0.565790	-0.612350
-0.172566	-0.034128	0.639861	-0.943168	-0.053220	-0.328029
0.399237	0.186805	0.308610	-0.846278	0.514609	0.137810
-0.033499	0.058153	0.347974	0.607275	-0.738765	0.292307
-0.083712	0.080174	0.360982	-0.407640	0.074537	0.910095
0.305900	-0.054444	0.452841	-0.211861	0.177815	-0.960987
-0.367920	0.116108	0.707982	-0.986311	-0.028647	-0.162388
-0.326734	0.286697	0.446034	-0.776942	0.578436	-0.248540
0.018018	-0.001503	0.589118	-0.281705	-0.190196	-0.940461
-0.073940	0.022141	0.451839	-0.104092	-0.320213	0.941610
-0.103166	-0.288269	0.496818	-0.140496	-0.241463	-0.960186
0.235655	0.280811	0.655501	0.937926	0.195702	-0.286350
0.371470	0.006211	0.690559	0.340580	0.719012	0.605827
0.218055	0.218180	0.522088	0.901851	0.383040	-0.199862
0.182609	0.185985	0.262701	0.463987	0.738625	0.489029
-0.135718	0.207261	0.794463	-0.432907	0.320760	0.842440
0.409889	0.309080	0.654345	0.524415	0.569504	0.632972
-0.054253	-0.034405	0.329634	-0.337953	-0.468527	0.816254
-0.024588	0.302583	0.740491	-0.004955	0.680893	0.732366
-0.239870	0.290381	0.327457	0.407663	-0.805413	0.430257
0.061995	-0.551687	0.573942	0.206501	-0.978359	0.013068
-0.111130	0.222003	0.684465	-0.210217	0.882829	-0.420025
0.115132	-0.179268	0.505941	-0.119904	0.291962	-0.948884
-0.029066	0.175506	0.676467	-0.113723	0.956668	-0.268056
-0.268835	0.272651	0.310741	-0.413604	0.843161	-0.343528
-0.276163	0.284978	0.151725	0.335762	-0.894311	-0.295755
0.128954	-0.021549	0.816435	0.897739	-0.407145	0.168220
0.079332	-0.057014	0.614710	-0.816064	0.022778	-0.577512
0.048997	-0.205597	0.590377	-0.862926	0.504070	-0.035680
0.485077	0.115313	0.153922	0.421941	0.499560	-0.756575
0.280167	-0.314208	0.231946	-0.155998	0.746929	-0.646345
0.174133	-0.022252	0.151246	0.857201	-0.142881	0.494763
0.092653	0.445181	0.809128	0.278292	0.857275	0.433167
0.177718	0.384397	0.124068	-0.160469	-0.394690	-0.904693
-0.139111	0.431360	0.848655	-0.237534	0.627630	0.741390
-0.104508	0.594057	0.140190	0.413849	0.270704	-0.869165
0.141744	0.200761	0.077712	0.442744	0.671162	-0.594575
0.336114	0.272264	0.435614	0.578405	-0.432357	-0.691748
0.063318	-0.182220	0.704857	0.720416	-0.368467	0.587565
-0.175142	-0.136469	0.058959	-0.753606	-0.571482	-0.324788
-0.078199	-0.543609	0.453307	-0.136000	-0.738971	-0.659868
-0.385758	-0.288626	0.375606	-0.617696	0.208016	-0.758407
0.174459	0.265773	0.268625	-0.235009	-0.162919	-0.958242
-0.190643	0.139592	0.512263	0.952851	-0.105711	0.284431
0.370177	0.138727	0.370253	-0.109470	-0.069563	-0.991553
0.043001	-0.164258	0.900518	0.313387	0.103654	0.943951
0.076428	0.225610	0.433885	-0.537301	-0.808821	0.238992
0.398394	-0.032623	0.347468	-0.703374	-0.166709	0.690994
-0.217364	-0.087206	0.170053	-0.852162	-0.483257	0.200706
-0.060821	-0.200409	0.617244	-0.390905	-0.907794	0.151997
-0.101346	-0.118390	0.611132	-0.523810	-0.836111	-0.162913
-0.040456	-0.038909	0.563902	-0.514535	-0.284036	0.809060
-0.138083	0.265251	0.309399	-0.677281	-0.729704	-0.093930
0.008705	-0.223223	0.707334	-0.304746	-0.928541	0.211994
-0.117122	0.186490	0.022125	-0.677300	0.257099	-0.689322
0.334213	-0.278141	0.426095	-0.873334	-0.484482	0.050644
-0.592309	-0.227196	0.462691	-0.961154	0.269395	-0.060084
0.045440	-0.005030	0.427573	-0.611748	-0.555072	0.563613
-0.120609	0.173282	0.105071	0.157096	0.839629	-0.519946
-0.072673	-0.136620	0.032798	-0.552794	-0.588288	-0.590200
-0.303322	0.150845	0.290956	-0.847188	0.421494	0.323444
0.171881	0.201347	0.505168	-0.386822	-0.870245	0.305027
0.097822	0.055949	0.399886	0.020710	-0.062089	0.997856
0.174153	-0.096819	0.650311	0.981469	0.187231	-0.040778
0.051024	0.038514	0.510253	0.837212	-0.219875	-0.500731
-0.084080	0.225218	0.296144	-0.648507	0.739808	0.179227
-0.070353	0.122621	0.893143	-0.513116	0.614526	0.599224
-0.099248	0.219185	0.369104	-0.081721	0.062349	0.994703
-0.518924	0.129658	0.643145	-0.916484	0.335382	-0.218119
-0.096705	0.168341	0.729952	-0.777586	0.627412	0.041399
0.339980	-0.025712	0.500357	0.898238	-0.428680	-0.096969
-0.143639	-0.456676	0.752542	-0.137846	-0.092865	0.986091
0.403778	0.225270	0.311766	0.805025	0.512117	-0.299452
-0.698475	0.222169	0.071505	-0.808644	0.535155	-0.244345
0.122612	0.291255	0.891192	0.308452	0.441060	0.842807
-0.003855	0.104786	0.178332	0.066858	0.304562	-0.950143
-0.136911	0.075071	0.140412	-0.757822	-0.422523	-0.497173
-0.181234	-0.066354	0.358754	-0.755026	-0.061716	-0.652783
-0.138765	0.128489	0.504202	0.175883	0.947422	-0.267314
0.204467	0.127739	0.694157	0.809199	0.328800	0.486917
-0.166474	-0.044878	0.152872	-0.846005	-0.520159	-0.117091
0.274687	0.227230	0.619588	0.653016	0.597649	0.465172
0.441242	0.158891	0.169823	-0.620771	0.760990	0.188516
-0.136535	0.096405	0.858100	-0.112942	0.100560	0.988500
-0.072908	-0.080900	0.504965	-0.188022	-0.310031	-0.931949
0.225559	-0.207478	0.369190	0.345014	-0.083703	-0.934858
0.025580	0.465887	0.306312	-0.930583	-0.269263	-0.248019
0.054594	0.605240	0.502938	-0.171105	0.390320	0.904640
0.109340	0.318083	0.428620	0.418723	-0.908107	0.003472
0.194461	-0.054307	0.310872	0.738351	-0.565469	0.367536
0.226852	0.126668	0.300085	0.800194	0.383478	0.461123
0.144836	0.485394	0.561127	-0.718421	0.444299	0.535229
0.091608	0.399314	0.439969	-0.338480	0.937814	0.077051
0.031571	-0.023403	0.358519	0.735565	-0.280273	0.616759
0.002392	0.016810	0.281475	0.702402	-0.085377	-0.706641
-0.187976	-0.089359	0.575164	-0.874825	-0.387036	-0.291351
-0.094670	-0.001009	0.582049	-0.177231	0.080034	-0.980910
0.140913	-0.014967	0.314750	0.677445	-0.073188	-0.731924
-0.166350	0.206057	0.035228	0.441275	0.876626	0.191842
-0.272273	0.273525	0.301193	0.819566	0.557060	0.134149
0.245076	0.118938	0.168729	0.888051	0.419841	-0.187345
-0.132026	0.031898	0.144742	-0.937869	-0.188928	-0.291045
0.051729	0.445177	0.476471	-0.208295	0.778847	-0.591617
-0.035901	0.182945	0.899347	0.491679	0.622064	0.609334
-0.279293	0.177586	0.197374	-0.985786	-0.090330	-0.141660
0.070606	0.031870	0.513531	0.697362	0.104597	-0.709045
0.054183	0.242144	0.300793	0.346893	0.291030	-0.891609
0.260299	0.281569	0.316546	0.168558	-0.981159	0.094420
-0.159499	0.172492	0.337575	0.107456	-0.309354	0.944856
-0.038069	0.065872	0.975917	0.143431	0.384569	0.911885
0.483334	0.421363	0.180659	0.025287	0.903704	0.427411
-0.039981	0.007021	0.662687	0.897519	-0.191380	-0.397283
-0.009291	-0.089916	0.328962	-0.595838	-0.744223	-0.301842
0.018510	-0.052764	0.472109	0.032426	-0.863264	0.503710
-0.232074	0.213042	0.392918	0.405452	-0.907186	0.112350
-0.167093	0.025734	0.012510	-0.879350	0.059628	-0.472427
-0.250029	0.313125	0.186446	-0.635616	0.673834	-0.376749
-0.157476	-0.041563	0.775648	-0.935232	0.353024	-0.026756
-0.338061	0.230712	0.729145	0.388001	0.654925	0.648482
0.273532	0.259975	0.117395	-0.500862	-0.822959	-0.268097
0.159640	0.314405	0.564796	0.840674	0.538543	-0.056911
0.014819	-0.312626	0.872251	0.315523	-0.657768	0.683949
-0.296463	0.020579	0.039298	-0.189645	-0.214865	-0.958054
0.747731	-0.177535	0.364789	0.931932	-0.160184	0.325337
-0.074158	0.082662	0.281719	-0.908594	0.152730	0.388755
-0.130743	0.309578	0.202058	-0.393783	0.852030	0.344934
0.112386	0.113378	0.206916	0.722802	0.636665	0.268728
-0.072986	0.061695	0.593749	0.583130	-0.803124	0.122275
-0.199590	0.272198	0.075714	0.530883	0.844934	-0.065190
0.322713	0.274628	0.431814	0.543296	0.086193	-0.835105
-0.209159	0.021931	0.116386	-0.974281	0.193491	0.115494
0.021399	-0.203044	0.631429	-0.914997	0.388838	0.107641
0.200062	0.093836	0.002953	0.992333	-0.004273	-0.123519
-0.144765	-0.075514	0.346539	0.418972	-0.895056	-0.152762
-0.045814	-0.230172	0.419307	-0.087403	-0.921554	-0.378285
0.028866	-0.008884	0.378017	0.264039	-0.602590	-0.753106
0.098574	-0.228838	0.268124	0.366689	-0.823506	0.432871
0.119389	0.147331	0.252638	-0.304645	-0.202593	-0.930670
-0.056115	-0.165826	0.187498	-0.239368	-0.702491	0.670231
-0.058008	0.328655	0.260976	-0.395380	0.900887	0.179101
-0.398482	0.082234	0.448214	-0.225852	-0.813576	-0.535804
-0.104851	-0.236064	0.402632	-0.565534	-0.608347	-0.556853
-0.073052	-0.269837	0.720799	-0.334491	0.496557	0.800966
0.030406	0.017304	0.624437	0.131882	0.082308	0.987842
0.506859	0.069992	0.559326	0.828549	0.535546	-0.163395
0.346607	-0.403428	0.714343	0.440448	-0.142242	0.886438
-0.149827	0.172142	0.284308	-0.844528	0.517347	0.138295
0.290591	0.434601	0.759259	0.037595	0.842825	0.536873
0.455597	0.324189	0.010355	0.245324	0.808888	-0.534337
-0.028977	0.054943	0.918853	0.097369	0.119257	0.988077
0.096064	-0.273796	0.461898	-0.849272	0.400969	-0.343454
0.319831	0.241426	0.276551	-0.340893	0.285702	0.895637
-0.098685	-0.293663	0.585421	-0.064179	-0.972740	0.222842
0.198553	0.074260	0.613272	0.826091	0.537447	0.169480
0.440115	0.198554	0.067083	-0.506861	0.097539	-0.856491
-0.061588	0.017353	0.567924	0.030238	-0.763833	-0.644705
-0.476825	0.425978	0.275656	-0.908038	0.006664	-0.418836
0.073584	-0.081135	0.720488	-0.110735	-0.993532	-0.025129
-0.013110	0.432061	0.331811	-0.339611	0.936264	0.089859
-0.042815	-0.190873	0.517804	0.066185	-0.215781	-0.974196
-0.511317	-0.112929	0.712842	-0.878167	0.304633	0.368812
-0.051270	-0.057912	0.948042	0.466043	-0.229368	0.854514
0.524821	0.294037	0.452825	0.228418	0.918683	-0.322254
0.090371	0.216487	0.206490	-0.010198	0.002422	0.999945
-0.195643	0.317316	0.530369	0.651436	0.757401	0.044432
0.024044	-0.166995	0.885251	0.165573	-0.165496	0.972212
-0.313701	-0.271351	0.557807	0.033347	-0.990766	-0.131420
0.057543	0.580269	0.197417	0.287484	0.953741	0.087925
0.373463	0.062022	0.020175	0.949719	-0.247801	-0.191386
0.053283	-0.003237	0.686844	0.306941	0.375212	0.874645
0.160976	-0.086744	0.742221	0.792196	-0.576088	-0.201367
0.185564	0.431889	0.542293	-0.643265	-0.044322	0.764360
0.201977	-0.292929	0.740793	-0.114042	-0.625576	0.771783
0.259590	0.058468	0.644131	0.265411	0.252849	0.930389
0.211426	-0.092081	0.751495	0.951396	-0.250125	-0.179676
-0.010736	-0.173546	0.120877	-0.063185	-0.877014	0.476292
0.008758	0.496282	0.419393	0.338786	0.883694	-0.322971
0.342390	-0.104060	0.866365	0.679649	0.308717	0.665410
0.155334	0.065546	0.404679	0.463427	-0.645185	-0.607431
-0.001572	0.078481	0.362319	0.705865	-0.433865	0.559925
0.350291	0.041160	0.775816	0.687148	-0.313235	0.655523
0.061650	0.332018	0.421122	0.282312	0.926340	0.249387
-0.546943	0.285029	0.236938	-0.746480	0.459090	0.481668
0.054163	-0.068238	0.504157	-0.025526	-0.151567	-0.988117
0.236218	0.367650	0.267229	-0.292538	0.900971	-0.320426
-0.451788	-0.602801	0.374604	-0.699418	-0.706344	-0.109052
0.162346	0.119910	0.304695	-0.652233	-0.048863	0.756442
-0.064305	-0.111437	0.356282	0.002724	-0.247561	-0.968869
-0.030784	0.264247	0.513487	0.054691	-0.108571	-0.992583
0.196385	0.112445	0.089070	0.875909	0.397396	-0.273603
0.048791	0.309264	0.580148	0.297052	0.850369	-0.434318
0.256205	0.538775	0.365292	0.292605	0.505311	-0.811815
-0.205213	0.505107	0.600963	-0.713121	0.692452	-0.109401
0.242917	0.004842	0.529494	-0.952840	-0.262477	-0.152321
-0.105622	-0.078166	0.175424	0.058894	-0.912113	0.405687
0.125204	0.185724	0.169266	0.697906	0.491545	-0.520875
0.494130	-0.156101	0.454458	0.547730	0.798146	-0.250908
0.278215	0.104620	0.216236	0.980287	0.196998	0.015148
-0.030775	-0.027874	0.328560	-0.188786	-0.138464	0.972208
0.120901	0.076767	0.205168	0.686936	0.401538	0.605711
-0.249230	0.446561	0.728514	-0.416895	0.763389	0.493392
0.002829	0.097796	0.179427	0.742294	0.407933	-0.531592
-0.163329	-0.435485	0.786159	0.359110	-0.549143	0.754640
0.024716	-0.070452	0.516192	0.581244	-0.523381	0.623079
-0.109931	0.028225	0.299491	-0.532210	0.101461	0.840511
0.415498	0.401823	0.577346	0.019041	0.835502	0.549157
0.011190	0.110136	0.335899	0.225647	0.168186	0.959582
0.015003	0.168363	0.143630	0.003063	0.951779	0.306768
0.000281	0.329521	0.457146	-0.630080	0.694381	0.347612
0.054779	-0.174942	0.515197	0.430333	-0.860090	0.273969
-0.043184	0.265366	0.455343	-0.125181	-0.889113	-0.440237
0.197269	0.057517	0.270431	0.633509	-0.009483	-0.773677
0.098298	-0.265866	0.446097	-0.091315	0.670737	-0.736052
0.531429	0.311248	0.340672	0.458363	-0.097495	0.883401
-0.203600	0.119318	0.341728	-0.254371	-0.946304	0.199511
-0.779840	0.009290	0.281443	-0.999629	0.011562	0.024681
-0.002834	-0.186201	0.742314	0.218015	-0.733475	0.643805
0.193747	0.334172	0.296839	0.549291	0.503686	0.666768
0.053866	0.004328	0.338476	0.389343	-0.134570	0.911210
0.336137	-0.118672	0.601119	0.029726	-0.687449	0.725624
-0.149266	0.234057	0.547258	-0.582298	0.721070	-0.375482
0.330064	0.234107	0.622294	0.821631	0.443583	0.357989
0.257268	0.331573	0.095497	0.254228	0.936415	-0.241857
-0.091604	-0.082660	0.012977	-0.394775	-0.660036	-0.639144
0.143616	0.005682	0.962030	-0.109622	-0.164893	0.980201
0.144786	0.002731	0.038404	0.686064	-0.294193	-0.665408
0.272319	0.046977	0.430943	0.216200	0.442306	-0.870416
0.162935	0.190651	0.072153	0.591080	0.627132	-0.507276
-0.141095	0.223036	0.671012	-0.525453	0.703928	0.477897
0.027910	0.129022	0.279626	0.169793	0.731351	0.660527
-0.123124	0.028720	0.133173	0.781910	-0.233895	0.577849
-0.354814	-0.073624	0.823867	-0.278036	0.094321	0.955929
-0.120141	0.149704	0.136998	-0.524189	0.665484	0.531373
0.355783	0.046953	0.407970	0.917380	-0.011706	-0.397839
-0.222570	0.240606	0.362218	-0.366515	0.201676	-0.908291
-0.017536	-0.228155	0.015028	-0.070693	-0.829060	-0.554673
0.017038	0.004680	0.270704	0.541068	-0.550441	0.635815
0.274672	0.081505	0.464416	0.942573	-0.318388	0.100924
-0.661673	-0.004949	0.381150	-0.826387	-0.538260	0.165412
-0.028775	0.159814	0.114641	0.129379	0.013401	0.991505
-0.111798	-0.139695	0.749274	-0.394980	-0.901336	-0.177722
0.053986	-0.081808	0.564179	0.062119	-0.101302	-0.992914
0.105015	0.166027	0.804549	0.657504	0.599614	0.456235
-0.450657	0.115016	0.099548	-0.448395	0.557877	-0.698366
0.268017	0.157386	0.128245	0.166201	0.748247	-0.642265
0.163775	-0.019777	0.739390	0.781038	-0.062754	0.621323
0.318563	0.363261	0.385431	0.780090	0.362810	-0.509735
-0.125629	-0.172462	0.485447	0.383226	0.894892	-0.228705
-0.378647	0.156261	0.750417	-0.057565	0.868166	0.492924
-0.066781	-0.035026	0.603483	-0.933293	0.323929	0.155027
-0.187040	0.158384	0.673457	-0.705018	0.000709	0.709189
-0.182051	0.060680	0.744726	0.743767	0.572791	0.344559
0.603810	0.183199	0.426934	0.427344	0.029218	0.903617
0.660457	0.315067	0.292238	0.954113	0.297372	-0.035185
-0.047846	-0.124131	0.684642	-0.761118	-0.446427	-0.470534
-0.084554	-0.015931	0.313745	-0.475633	-0.743456	0.470156
-0.404079	-0.006470	0.759836	-0.560781	0.758730	0.331442
0.032325	0.184512	0.156250	0.319934	0.162065	0.933476
-0.156554	0.039065	0.382371	-0.288940	-0.230838	0.929101
-0.150165	0.013368	0.061283	0.884220	-0.304542	-0.354132
0.320700	0.042773	0.435667	-0.290787	0.873965	-0.389394
-0.210463	0.340236	0.180071	-0.108946	-0.855458	0.506282
-0.237622	-0.362527	0.778110	0.144796	0.009701	0.989414
-0.170047	-0.123998	0.770878	-0.344879	0.863646	0.367661
-0.011920	-0.213004	0.643155	-0.978135	-0.204152	-0.039668
0.023607	-0.127103	0.220675	-0.089408	-0.759873	-0.643894
0.049799	0.301953	0.074426	0.809638	0.554304	0.192959
0.201019	0.236551	0.203207	0.371551	0.917236	-0.143626
-0.216145	-0.111055	0.025335	0.222586	-0.966503	0.127778
-0.214748	0.069239	0.034759	-0.356569	-0.572212	-0.738534
-0.077666	-0.024558	0.884623	-0.613769	0.066542	0.786677
0.256857	0.306439	0.164693	-0.938682	0.013829	-0.344507
-0.199358	0.158001	0.168998	-0.480050	0.107600	-0.870617
0.070122	-0.045824	0.602641	0.369125	-0.523225	0.768103
-0.262420	0.031354	0.290510	-0.555297	-0.005756	-0.831632
0.103034	0.156208	0.147501	0.693237	0.674535	0.253821
0.066420	0.112908	0.749131	-0.006055	0.720144	0.693799
-0.026739	-0.019128	0.588226	-0.383848	0.407363	-0.828683
0.032889	-0.088658	0.325231	-0.177230	-0.528607	0.830159
-0.146947	0.355213	0.783701	-0.807340	-0.054894	0.587528
-0.325684	-0.046738	0.272003	-0.711572	-0.694104	-0.109017
-0.098983	-0.021038	0.429677	0.886941	-0.455861	0.074338
-0.687566	0.027224	0.277784	-0.985212	0.132605	0.108503
0.256241	0.050763	0.268634	0.998155	-0.002161	-0.060679
0.039912	-0.089172	0.927547	0.192696	-0.436825	0.878665
0.242262	0.153155	0.863829	0.897374	0.049525	0.438482
0.454350	-0.043814	0.613700	0.872569	-0.227519	-0.432271
0.025659	0.400567	0.371412	-0.632111	0.220550	-0.742828
0.175671	-0.182591	0.793992	0.532666	-0.502015	0.681358
0.411980	0.349713	0.099042	0.699900	0.586907	-0.407038
-0.093195	-0.184799	0.357408	0.029843	-0.487544	-0.872588
-0.094157	-0.008941	0.481149	-0.442289	0.297964	-0.845930
0.249443	-0.052792	0.843640	0.817210	-0.393182	0.421397
-0.228812	0.502042	0.175809	0.613102	0.789832	-0.016469
-0.190593	-0.005851	0.006562	-0.837957	-0.010554	-0.545635
-0.008153	-0.206629	0.882843	-0.349034	-0.450685	0.821619
-0.073919	0.096524	0.774873	-0.397177	0.491647	0.774941
0.100050	0.016922	0.302851	0.539663	0.095726	0.836421
-0.057983	-0.299475	0.748366	0.124657	-0.219408	0.967637
-0.142794	0.136494	0.360463	0.199542	-0.810910	0.550099
0.127019	0.363537	0.845178	0.232316	0.566961	0.790306
-0.072794	-0.347835	0.475300	-0.682733	-0.534928	-0.497723
-0.034671	0.205570	0.285170	0.232189	0.971430	0.049119
-0.106260	0.303364	0.055038	-0.840673	0.342538	-0.419448
-0.420088	-0.222351	0.747840	-0.301941	-0.800783	0.517280
-0.067531	-0.009805	0.723527	-0.571107	0.088643	0.816075
-0.067752	0.122473	0.169038	-0.356333	0.933978	-0.026667
-0.356561	0.054310	0.193308	0.920612	-0.386376	0.056449
-0.140784	-0.087085	0.264540	-0.683210	-0.333196	0.649772
-0.622481	0.274817	0.418807	-0.660949	0.745999	0.081430
-0.256311	-0.027792	0.494818	0.902113	-0.311312	0.298793
-0.013734	-0.042159	0.815499	-0.882455	0.366193	0.295257
0.475862	0.033803	0.494186	0.219503	-0.964360	-0.147746
-0.067223	-0.152361	0.609883	0.743327	0.582446	-0.328970
0.276862	-0.361048	0.534914	0.800878	0.558437	0.216198
0.129576	0.241752	0.519987	-0.339083	-0.935747	-0.096956
-0.160501	0.266145	0.028455	-0.386442	0.468831	-0.794267
0.448964	0.422736	0.537885	0.726067	0.679821	0.103296
0.156386	0.068744	0.671672	0.402007	0.115135	0.908369
-0.124114	0.195501	0.030539	-0.587476	0.778827	-0.219776
-0.013847	0.103463	0.619254	-0.622362	0.150210	-0.768181
-0.061590	0.066572	0.266160	0.214397	-0.236222	0.947752
-0.017520	0.101598	0.414621	0.338910	0.278309	0.898712
0.057598	0.445656	0.705697	0.400937	0.915884	-0.020160
0.054548	-0.372199	0.562732	-0.585985	-0.780552	-0.217624
0.129656	0.112448	0.551582	0.026770	0.092769	0.995328
0.552267	0.361030	0.194830	0.774732	-0.086683	-0.626320
-0.478109	-0.062842	0.758164	-0.125350	-0.049104	0.990897
-0.294369	-0.054725	0.743093	0.113866	-0.228492	0.966864
-0.153908	-0.040581	0.089307	-0.631841	-0.549397	-0.546755
0.201489	0.110222	0.709311	0.668202	0.306576	0.677877
-0.046624	-0.066491	0.390728	-0.889658	-0.423578	-0.170559
0.006797	0.155757	0.673239	-0.476625	0.802479	-0.358966
0.404848	0.011249	0.618342	0.736162	-0.088851	0.670948
-0.048231	0.197055	0.467375	0.281238	-0.922020	0.266054
0.479849	-0.090342	0.463864	0.639327	-0.721271	0.266514
0.146488	-0.050095	0.134713	0.856092	-0.422131	0.298180
0.172725	0.351811	0.135289	-0.937799	-0.339783	-0.071270
-0.221153	0.189499	0.115285	0.383162	-0.369388	0.846604
-0.148303	-0.019836	0.654608	-0.823859	0.110366	-0.555946
0.357940	-0.271185	0.827466	0.303094	-0.428556	0.851160
-0.062857	-0.155787	0.624463	-0.924904	-0.263685	-0.273902
-0.329073	0.397149	0.740056	-0.631595	0.576796	0.518069
0.076880	0.031931	0.268950	0.179394	0.101686	0.978508
